//X;Y;Z;Intensity;Return Number;Number Of Returns;Scan Direction Flag;Point Source ID;C2M signed distances[-][<0.8];C2M signed distances[<0.4];C2M signed distances[-][<0.2];Stump91;Rf;Gf;Bf
300
445605.37450226;5696557.28579910;472.70994999;42148.000000;1.000000;1.000000;1.000000;1.000000;-0.044201;0.044201;-0.044201;1.000000;0.654902;0.65098;0.603922
445605.44740112;5696557.28839882;472.70624973;29555.000000;1.000000;1.000000;1.000000;1.000000;0.041601;-0.041601;0.041601;1.000000;0.478431;0.45098;0.403922
445605.43680199;5696557.14929970;472.70414974;25957.000000;1.000000;1.000000;1.000000;1.000000;-0.180700;0.180700;-0.180700;1.000000;0.431373;0.4;0.309804
445605.43630226;5696557.16799934;472.70204975;35980.000000;1.000000;1.000000;1.000000;1.000000;-0.162001;0.162001;-0.162001;1.000000;0.580392;0.54902;0.466667
445605.46790131;5696557.27960022;472.70015003;37779.000000;1.000000;1.000000;1.000000;1.000000;-0.050400;0.050400;-0.050400;1.000000;0.607843;0.576471;0.52549
445605.46660145;5696557.31699951;472.70284988;37008.000000;1.000000;1.000000;1.000000;1.000000;-0.013000;0.013000;-0.013000;1.000000;0.6;0.564706;0.490196
445605.17290123;5696557.22209938;472.74664976;22873.000000;1.000000;1.000000;1.000000;1.000000;-0.107901;0.107901;-0.107901;1.000000;0.32549;0.368627;0.313725
445605.13010223;5696557.25589951;472.78004982;19532.000000;1.000000;1.000000;1.000000;1.000000;0.074171;-0.074171;0.074171;1.000000;0.258824;0.321569;0.294118
445605.11850174;5696557.19879921;472.76494982;30583.000000;1.000000;1.000000;1.000000;1.000000;-0.131468;0.131468;-0.131468;1.000000;0.435294;0.490196;0.443137
445605.19950111;5696557.26909836;472.72044994;15420.000000;1.000000;1.000000;1.000000;1.000000;-0.060902;0.060902;-0.060902;1.000000;0.254902;0.235294;0.207843
445605.12540157;5696557.25630005;472.78224995;23387.000000;1.000000;1.000000;1.000000;1.000000;-0.073715;0.073715;-0.073715;1.000000;0.305882;0.384314;0.356863
445605.41930206;5696557.33549889;472.70095016;32639.000000;1.000000;1.000000;1.000000;1.000000;-0.005499;0.005499;-0.005499;1.000000;0.529412;0.501961;0.419608
445605.42000206;5696557.29789932;472.70984985;14392.000000;1.000000;1.000000;1.000000;1.000000;0.032101;-0.032101;0.032101;1.000000;0.235294;0.223529;0.184314
445605.09730156;5696557.22639854;472.77355005;30840.000000;1.000000;1.000000;1.000000;1.000000;-0.107740;0.107740;-0.107740;1.000000;0.439216;0.498039;0.439216
445605.15310104;5696557.22130020;472.76905014;47802.000000;1.000000;1.000000;1.000000;1.000000;-0.108700;0.108700;-0.108700;1.000000;0.713725;0.74902;0.686275
445605.19210155;5696557.22279938;472.73595001;8481.000000;1.000000;1.000000;1.000000;1.000000;-0.107235;0.107235;-0.107235;1.000000;0.137255;0.137255;0.0941176
445605.45660217;5696557.33659943;472.70494987;35980.000000;1.000000;1.000000;1.000000;1.000000;-0.006599;0.006599;-0.006599;1.000000;0.584314;0.54902;0.462745
445605.05860146;5696557.26269920;472.77224972;16962.000000;1.000000;1.000000;1.000000;1.000000;-0.095869;0.095869;-0.095869;1.000000;0.227451;0.282353;0.243137
445605.16710098;5696557.30459984;472.73344995;39064.000000;1.000000;1.000000;1.000000;1.000000;-0.025400;0.025400;-0.025400;1.000000;0.580392;0.615686;0.541176
445605.31860168;5696557.30969818;472.70305016;37779.000000;1.000000;1.000000;1.000000;1.000000;0.020302;-0.020302;0.020302;1.000000;0.588235;0.584314;0.529412
445605.37710197;5696557.23879822;472.70954992;25957.000000;1.000000;1.000000;1.000000;1.000000;0.091202;-0.091202;0.091202;1.000000;0.411765;0.4;0.360784
445605.44880112;5696557.27889832;472.70624973;27242.000000;1.000000;1.000000;1.000000;1.000000;0.051102;-0.051102;0.051102;1.000000;0.443137;0.415686;0.368627
445605.37590225;5696557.27629860;472.70994999;32639.000000;1.000000;1.000000;1.000000;1.000000;-0.053701;0.053701;-0.053701;1.000000;0.513725;0.501961;0.454902
445605.37230118;5696557.31169899;472.70785000;11565.000000;1.000000;1.000000;1.000000;1.000000;-0.018301;0.018301;-0.018301;1.000000;0.188235;0.180392;0.14902
445605.15630157;5696557.17439850;472.75705006;32125.000000;1.000000;1.000000;1.000000;1.000000;-0.155602;0.155602;-0.155602;1.000000;0.478431;0.505882;0.454902
445605.14430149;5696557.20109947;472.76615002;42919.000000;1.000000;1.000000;1.000000;1.000000;-0.128901;0.128901;-0.128901;1.000000;0.623529;0.678431;0.643137
445605.38580139;5696557.25669868;472.71014978;28270.000000;1.000000;1.000000;1.000000;1.000000;0.073301;-0.073301;0.073301;1.000000;0.447059;0.435294;0.396078
445605.19670113;5696557.31609924;472.72324993;13621.000000;1.000000;1.000000;1.000000;1.000000;-0.013950;0.013950;-0.013950;1.000000;0.211765;0.219608;0.156863
445605.45870216;5696557.25929840;472.70645000;8995.000000;1.000000;1.000000;1.000000;1.000000;0.070702;-0.070702;0.070702;1.000000;0.156863;0.137255;0.105882
445605.12680157;5696557.26799973;472.77544977;7196.000000;1.000000;1.000000;1.000000;1.000000;-0.062000;0.062000;-0.062000;1.000000;0.0823529;0.12549;0.109804
445605.26500137;5696557.21639832;472.71355011;21331.000000;1.000000;1.000000;1.000000;1.000000;-0.113602;0.113602;-0.113602;1.000000;0.345098;0.32549;0.278431
445605.15990170;5696557.25609978;472.74184992;37265.000000;1.000000;1.000000;1.000000;1.000000;-0.073922;0.073922;-0.073922;1.000000;0.580392;0.572549;0.529412
445605.34710129;5696557.29299934;472.71114971;25443.000000;1.000000;1.000000;1.000000;1.000000;0.037001;-0.037001;0.037001;1.000000;0.403922;0.396078;0.337255
445605.22100170;5696557.22509964;472.72095015;1799.000000;1.000000;1.000000;1.000000;1.000000;-0.104901;0.104901;-0.104901;1.000000;0.0392157;0.027451;0.0196078
445605.44630154;5696557.32589920;472.70435001;32382.000000;1.000000;1.000000;1.000000;1.000000;0.004101;-0.004101;0.004101;1.000000;0.52549;0.494118;0.415686
445605.43590172;5696557.13999947;472.70405008;28527.000000;1.000000;1.000000;1.000000;1.000000;-0.190001;0.190001;-0.190001;1.000000;0.470588;0.435294;0.34902
445605.40050133;5696557.13849838;472.70935013;8995.000000;1.000000;1.000000;1.000000;1.000000;-0.191502;0.191502;-0.191502;1.000000;0.164706;0.137255;0.0745098
445605.43320091;5696557.21259888;472.70704987;37779.000000;1.000000;1.000000;1.000000;1.000000;-0.117401;0.117401;-0.117401;1.000000;0.588235;0.584314;0.517647
445605.39570148;5696557.21139915;472.70774986;20817.000000;1.000000;1.000000;1.000000;1.000000;0.118601;-0.118601;0.118601;1.000000;0.329412;0.321569;0.266667
445605.39670189;5696557.24869926;472.71054985;21074.000000;1.000000;1.000000;1.000000;1.000000;0.081301;-0.081301;0.081301;1.000000;0.333333;0.32549;0.286275
445605.39320190;5696557.28639801;472.71084978;38036.000000;1.000000;1.000000;1.000000;1.000000;0.043602;-0.043602;0.043602;1.000000;0.592157;0.584314;0.545098
445605.42750175;5696557.32530029;472.70585014;30840.000000;1.000000;1.000000;1.000000;1.000000;0.004700;-0.004700;0.004700;1.000000;0.501961;0.47451;0.396078
445605.25780113;5696557.14909943;472.73334982;24415.000000;1.000000;1.000000;1.000000;1.000000;-0.180919;0.180919;-0.180919;1.000000;0.380392;0.376471;0.34902
445605.16460140;5696557.18999870;472.75985004;53713.000000;1.000000;1.000000;1.000000;1.000000;-0.140015;0.140015;-0.140015;1.000000;0.811765;0.835294;0.784314
445605.11460121;5696557.26659973;472.78415014;36494.000000;1.000000;1.000000;1.000000;1.000000;-0.064578;0.064578;-0.064578;1.000000;0.517647;0.580392;0.560784
445605.32290085;5696557.20879944;472.70904972;48316.000000;1.000000;1.000000;1.000000;1.000000;0.121201;-0.121201;0.121201;1.000000;0.745098;0.745098;0.686275
445605.28540142;5696557.20759972;472.70965006;30069.000000;1.000000;1.000000;1.000000;1.000000;0.122400;-0.122400;0.122400;1.000000;0.482353;0.458824;0.4
445605.26690109;5696557.23499878;472.70914986;32896.000000;1.000000;1.000000;1.000000;1.000000;-0.095001;0.095001;-0.095001;1.000000;0.517647;0.501961;0.462745
445605.36020096;5696557.20999916;472.71304991;15420.000000;1.000000;1.000000;1.000000;1.000000;-0.120001;0.120001;-0.120001;1.000000;0.25098;0.243137;0.184314
445605.03830154;5696557.29949959;472.78114988;34438.000000;1.000000;1.000000;1.000000;1.000000;-0.093680;0.093680;-0.093680;1.000000;0.498039;0.541176;0.533333
445605.28420170;5696557.24279984;472.70534994;46260.000000;1.000000;1.000000;1.000000;1.000000;0.087200;-0.087200;0.087200;1.000000;0.717647;0.713725;0.666667
445605.14800175;5696557.30389984;472.74184992;42662.000000;1.000000;1.000000;1.000000;1.000000;-0.026100;0.026100;-0.026100;1.000000;0.635294;0.670588;0.607843
445605.28070171;5696557.28049858;472.70564987;23130.000000;1.000000;1.000000;1.000000;1.000000;-0.049501;0.049501;-0.049501;1.000000;0.364706;0.356863;0.301961
445605.24550159;5696557.28139885;472.70874979;41120.000000;1.000000;1.000000;1.000000;1.000000;-0.048601;0.048601;-0.048601;1.000000;0.639216;0.631373;0.596078
445605.28180130;5696557.31999977;472.71084978;38550.000000;1.000000;1.000000;1.000000;1.000000;-0.010000;0.010000;-0.010000;1.000000;0.592157;0.596078;0.54902
445605.26190193;5696557.30789955;472.71215012;35466.000000;1.000000;1.000000;1.000000;1.000000;-0.022100;0.022100;-0.022100;1.000000;0.54902;0.545098;0.513725
445605.21860130;5696557.18519981;472.74364998;14906.000000;1.000000;1.000000;1.000000;1.000000;-0.144800;0.144800;-0.144800;1.000000;0.207843;0.247059;0.203922
445605.12060173;5696557.30129822;472.77325012;13621.000000;1.000000;1.000000;1.000000;1.000000;-0.029380;0.029380;-0.029380;1.000000;0.180392;0.231373;0.180392
445605.09560211;5696557.29389961;472.79524996;27499.000000;1.000000;1.000000;1.000000;1.000000;-0.047763;0.047763;-0.047763;1.000000;0.372549;0.447059;0.423529
445605.15310104;5696557.24019821;472.75535013;21331.000000;1.000000;1.000000;1.000000;1.000000;-0.089802;0.089802;-0.089802;1.000000;0.321569;0.337255;0.301961
445605.23590096;5696557.25199898;472.70564987;7967.000000;1.000000;1.000000;1.000000;1.000000;-0.078001;0.078001;-0.078001;1.000000;0.133333;0.12549;0.101961
445605.21060188;5696557.25889977;472.71154978;12079.000000;1.000000;1.000000;1.000000;1.000000;-0.071100;0.071100;-0.071100;1.000000;0.2;0.184314;0.168627
445605.17830093;5696557.29659851;472.72914984;31354.000000;1.000000;1.000000;1.000000;1.000000;-0.033401;0.033401;-0.033401;1.000000;0.478431;0.490196;0.435294
445605.13490112;5696557.19959839;472.76564981;32382.000000;1.000000;1.000000;1.000000;1.000000;-0.130402;0.130402;-0.130402;1.000000;0.462745;0.517647;0.486275
445605.07780178;5696557.27239807;472.78254988;46260.000000;1.000000;1.000000;1.000000;1.000000;-0.075673;0.075673;-0.075673;1.000000;0.666667;0.729412;0.698039
445605.14370163;5696557.25449951;472.78765013;22616.000000;1.000000;1.000000;1.000000;1.000000;-0.075500;0.075500;-0.075500;1.000000;0.278431;0.384314;0.321569
445605.14990147;5696557.27569969;472.74394991;13364.000000;1.000000;1.000000;1.000000;1.000000;-0.054300;0.054300;-0.054300;1.000000;0.207843;0.211765;0.172549
445605.03670128;5696557.30889900;472.78345015;44204.000000;1.000000;1.000000;1.000000;1.000000;-0.092612;0.092612;-0.092612;1.000000;0.647059;0.690196;0.682353
445605.29950150;5696557.28109940;472.70414974;30583.000000;1.000000;1.000000;1.000000;1.000000;0.048901;-0.048901;0.048901;1.000000;0.478431;0.47451;0.427451
445605.14890106;5696557.31320007;472.74204971;41634.000000;1.000000;1.000000;1.000000;1.000000;-0.016800;0.016800;-0.016800;1.000000;0.615686;0.658824;0.576471
445605.21630104;5696557.29799850;472.71694996;28270.000000;1.000000;1.000000;1.000000;1.000000;-0.032001;0.032001;-0.032001;1.000000;0.439216;0.435294;0.4
445605.21270187;5696557.33339890;472.71484997;21074.000000;1.000000;1.000000;1.000000;1.000000;0.003399;-0.003399;0.003399;1.000000;0.32549;0.329412;0.278431
445605.30940159;5696557.26379974;472.70674994;39321.000000;1.000000;1.000000;1.000000;1.000000;-0.066200;0.066200;-0.066200;1.000000;0.611765;0.603922;0.54902
445605.08280190;5696557.32569893;472.78114988;10794.000000;1.000000;1.000000;1.000000;1.000000;-0.044284;0.044284;-0.044284;1.000000;0.145098;0.180392;0.164706
445605.23540123;5696557.29869850;472.71084978;42919.000000;1.000000;1.000000;1.000000;1.000000;-0.031301;0.031301;-0.031301;1.000000;0.662745;0.662745;0.611765
445605.23680122;5696557.26119812;472.70575001;12336.000000;1.000000;1.000000;1.000000;1.000000;-0.068802;0.068802;-0.068802;1.000000;0.203922;0.188235;0.168627
445605.43740089;5696557.13049896;472.70394995;35209.000000;1.000000;1.000000;1.000000;1.000000;-0.199501;0.199501;-0.199501;1.000000;0.576471;0.537255;0.45098
445605.44230087;5696557.26079948;472.71035006;11822.000000;1.000000;1.000000;1.000000;1.000000;0.069201;-0.069201;0.069201;1.000000;0.196078;0.184314;0.14902
445605.45220192;5696557.24349983;472.71294977;17990.000000;1.000000;1.000000;1.000000;1.000000;0.086500;-0.086500;0.086500;1.000000;0.282353;0.278431;0.247059
445605.32950218;5696557.25490006;472.70984985;32896.000000;1.000000;1.000000;1.000000;1.000000;0.075100;-0.075100;0.075100;1.000000;0.509804;0.509804;0.458824
445605.10250099;5696557.32879837;472.76574995;9252.000000;1.000000;1.000000;1.000000;1.000000;-0.024406;0.024406;-0.024406;1.000000;0.117647;0.156863;0.133333
445605.36700161;5696557.25609978;472.71154978;38293.000000;1.000000;1.000000;1.000000;1.000000;-0.073900;0.073900;-0.073900;1.000000;0.6;0.588235;0.54902
445605.35920151;5696557.24749954;472.71114971;38807.000000;1.000000;1.000000;1.000000;1.000000;0.082500;-0.082500;0.082500;1.000000;0.607843;0.596078;0.556863
445605.36590202;5696557.29360016;472.70965006;39578.000000;1.000000;1.000000;1.000000;1.000000;-0.036400;0.036400;-0.036400;1.000000;0.615686;0.607843;0.560784
445605.43900116;5696557.29849823;472.70604994;30840.000000;1.000000;1.000000;1.000000;1.000000;-0.031502;0.031502;-0.031502;1.000000;0.494118;0.47451;0.419608
445605.41460140;5696557.23999985;472.71124985;33924.000000;1.000000;1.000000;1.000000;1.000000;0.090000;-0.090000;0.090000;1.000000;0.52549;0.521569;0.482353
445605.43080147;5696557.28759964;472.71014978;18247.000000;1.000000;1.000000;1.000000;1.000000;0.042400;-0.042400;0.042400;1.000000;0.298039;0.282353;0.235294
445605.30780132;5696557.32009895;472.70505001;31354.000000;1.000000;1.000000;1.000000;1.000000;-0.009901;0.009901;-0.009901;1.000000;0.486275;0.482353;0.443137
445605.35570152;5696557.28520020;472.71145012;29041.000000;1.000000;1.000000;1.000000;1.000000;0.044800;-0.044800;0.044800;1.000000;0.458824;0.447059;0.388235
445605.27050217;5696557.29780014;472.70774986;31611.000000;1.000000;1.000000;1.000000;1.000000;-0.032200;0.032200;-0.032200;1.000000;0.490196;0.490196;0.439216
445605.35440166;5696557.32029922;472.70944979;28013.000000;1.000000;1.000000;1.000000;1.000000;0.009701;-0.009701;0.009701;1.000000;0.435294;0.435294;0.392157
445605.21220215;5696557.16709908;472.74545004;48573.000000;1.000000;1.000000;1.000000;1.000000;-0.162901;0.162901;-0.162901;1.000000;0.733333;0.752941;0.72549
445605.21140106;5696557.24249847;472.71134998;17733.000000;1.000000;1.000000;1.000000;1.000000;-0.087502;0.087502;-0.087502;1.000000;0.286275;0.270588;0.247059
445605.32180222;5696557.24629982;472.70715000;25443.000000;1.000000;1.000000;1.000000;1.000000;0.083700;-0.083700;0.083700;1.000000;0.388235;0.396078;0.34902
445605.31810196;5696557.28169830;472.70734980;30583.000000;1.000000;1.000000;1.000000;1.000000;0.048302;-0.048302;0.048302;1.000000;0.478431;0.470588;0.419608
445605.13470085;5696557.31439980;472.74834969;28270.000000;1.000000;1.000000;1.000000;1.000000;-0.015613;0.015613;-0.015613;1.000000;0.411765;0.45098;0.388235
445605.24170120;5696557.31669815;472.71134998;29812.000000;1.000000;1.000000;1.000000;1.000000;-0.013302;0.013302;-0.013302;1.000000;0.466667;0.458824;0.407843
445605.17970093;5696557.28719910;472.72914984;17990.000000;1.000000;1.000000;1.000000;1.000000;-0.042801;0.042801;-0.042801;1.000000;0.282353;0.282353;0.239216
445605.30660160;5696557.33639915;472.71215012;38807.000000;1.000000;1.000000;1.000000;1.000000;0.006399;-0.006399;0.006399;1.000000;0.6;0.6;0.556863
445605.27150162;5696557.33499916;472.71054985;33153.000000;1.000000;1.000000;1.000000;1.000000;0.004999;-0.004999;0.004999;1.000000;0.509804;0.509804;0.47451
445605.34440144;5696557.33769806;472.70685007;18761.000000;1.000000;1.000000;1.000000;1.000000;-0.007698;0.007698;-0.007698;1.000000;0.298039;0.290196;0.247059
445605.21260174;5696557.19509895;472.74344971;18504.000000;1.000000;1.000000;1.000000;1.000000;-0.134901;0.134901;-0.134901;1.000000;0.266667;0.298039;0.258824
445605.18880089;5696557.25829895;472.72685005;21845.000000;1.000000;1.000000;1.000000;1.000000;-0.071701;0.071701;-0.071701;1.000000;0.360784;0.333333;0.290196
445605.11200150;5696557.32799919;472.76144983;17219.000000;1.000000;1.000000;1.000000;1.000000;-0.015009;0.015009;-0.015009;1.000000;0.239216;0.282353;0.239216
445605.23730095;5696557.24249847;472.70795013;8995.000000;1.000000;1.000000;1.000000;1.000000;-0.087502;0.087502;-0.087502;1.000000;0.156863;0.141176;0.0941176
445605.31720169;5696557.32149895;472.70545008;32382.000000;1.000000;1.000000;1.000000;1.000000;0.008501;-0.008501;0.008501;1.000000;0.501961;0.501961;0.462745
445605.24650200;5696557.24159821;472.70834972;15420.000000;1.000000;1.000000;1.000000;1.000000;-0.088402;0.088402;-0.088402;1.000000;0.254902;0.235294;0.192157
445605.06960114;5696557.25459869;472.77264978;21845.000000;1.000000;1.000000;1.000000;1.000000;-0.094688;0.094688;-0.094688;1.000000;0.298039;0.360784;0.309804
445605.25550087;5696557.26179894;472.70664980;38807.000000;1.000000;1.000000;1.000000;1.000000;-0.068297;0.068297;-0.068297;1.000000;0.607843;0.596078;0.560784
445605.17970093;5696557.21919830;472.74464991;17476.000000;1.000000;1.000000;1.000000;1.000000;-0.110802;0.110802;-0.110802;1.000000;0.254902;0.282353;0.235294
445605.09270103;5696557.31059845;472.79064991;16448.000000;1.000000;1.000000;1.000000;1.000000;-0.039299;0.039299;-0.039299;1.000000;0.223529;0.266667;0.243137
445605.17290123;5696557.20099838;472.75344994;46260.000000;1.000000;1.000000;1.000000;1.000000;-0.129002;0.129002;-0.129002;1.000000;0.690196;0.721569;0.67451
445605.18600090;5696557.13679894;472.74624969;36237.000000;1.000000;1.000000;1.000000;1.000000;-0.193201;0.193201;-0.193201;1.000000;0.564706;0.556863;0.517647
445605.22010143;5696557.17569931;472.74364998;27499.000000;1.000000;1.000000;1.000000;1.000000;-0.154301;0.154301;-0.154301;1.000000;0.403922;0.431373;0.407843
445605.15370186;5696557.20030029;472.76415016;40606.000000;1.000000;1.000000;1.000000;1.000000;-0.129700;0.129700;-0.129700;1.000000;0.576471;0.647059;0.607843
445605.06720169;5696557.28279884;472.77985003;44718.000000;1.000000;1.000000;1.000000;1.000000;-0.076086;0.076086;-0.076086;1.000000;0.65098;0.701961;0.678431
445605.14360149;5696557.28549965;472.74844982;14649.000000;1.000000;1.000000;1.000000;1.000000;-0.044500;0.044500;-0.044500;1.000000;0.219608;0.235294;0.192157
445605.02810104;5696557.31669815;472.78314974;41891.000000;1.000000;1.000000;1.000000;1.000000;-0.099667;0.099667;-0.099667;1.000000;0.615686;0.65098;0.65098
445605.32850178;5696557.29239853;472.70564987;22102.000000;1.000000;1.000000;1.000000;1.000000;0.037601;-0.037601;0.037601;1.000000;0.352941;0.345098;0.286275
445605.14000137;5696557.32089813;472.74634983;36751.000000;1.000000;1.000000;1.000000;1.000000;-0.009102;0.009102;-0.009102;1.000000;0.541176;0.588235;0.498039
445605.17000206;5696557.23879822;472.74204971;28270.000000;1.000000;1.000000;1.000000;1.000000;-0.091202;0.091202;-0.091202;1.000000;0.45098;0.435294;0.392157
445605.25200089;5696557.32749947;472.71194984;37522.000000;1.000000;1.000000;1.000000;1.000000;-0.002504;0.002504;-0.002504;1.000000;0.580392;0.576471;0.533333
445605.23160179;5696557.23359879;472.71224977;5140.000000;1.000000;1.000000;1.000000;1.000000;-0.096401;0.096401;-0.096401;1.000000;0.0941176;0.0784314;0.0470588
445605.19480141;5696557.15699966;472.74685003;46774.000000;1.000000;1.000000;1.000000;1.000000;-0.173027;0.173027;-0.173027;1.000000;0.709804;0.721569;0.686275
445605.25130089;5696557.13089951;472.73745014;38550.000000;1.000000;1.000000;1.000000;1.000000;-0.199100;0.199100;-0.199100;1.000000;0.568627;0.603922;0.592157
445605.13670166;5696557.19249924;472.76095011;30840.000000;1.000000;1.000000;1.000000;1.000000;-0.137501;0.137501;-0.137501;1.000000;0.435294;0.490196;0.462745
445605.13560112;5696557.20889862;472.76814987;35209.000000;1.000000;1.000000;1.000000;1.000000;-0.121101;0.121101;-0.121101;1.000000;0.494118;0.564706;0.52549
445605.38450153;5696557.26849945;472.71024992;32896.000000;1.000000;1.000000;1.000000;1.000000;0.061501;-0.061501;0.061501;1.000000;0.521569;0.505882;0.462745
445605.41610153;5696557.23049934;472.70884993;24672.000000;1.000000;1.000000;1.000000;1.000000;0.099501;-0.099501;0.099501;1.000000;0.388235;0.384314;0.337255
445605.02000149;5696557.29899796;472.77094986;16191.000000;1.000000;1.000000;1.000000;1.000000;-0.111281;0.111281;-0.111281;1.000000;0.227451;0.262745;0.243137
445605.08590134;5696557.31349953;472.79274990;16962.000000;1.000000;1.000000;1.000000;1.000000;-0.044173;0.044173;-0.044173;1.000000;0.231373;0.27451;0.258824
445605.25200089;5696557.16129883;472.73084976;23644.000000;1.000000;1.000000;1.000000;1.000000;-0.168701;0.168701;-0.168701;1.000000;0.360784;0.364706;0.345098
445605.24850090;5696557.19669922;472.72655012;15934.000000;1.000000;1.000000;1.000000;1.000000;-0.133301;0.133301;-0.133301;1.000000;0.25098;0.247059;0.203922
445605.16580208;5696557.20159920;472.75775005;35723.000000;1.000000;1.000000;1.000000;1.000000;-0.128403;0.128403;-0.128403;1.000000;0.517647;0.568627;0.521569
445605.41110142;5696557.27769859;472.71154978;22616.000000;1.000000;1.000000;1.000000;1.000000;0.052301;-0.052301;0.052301;1.000000;0.352941;0.34902;0.309804
445605.12810143;5696557.30079849;472.76184990;16962.000000;1.000000;1.000000;1.000000;1.000000;0.029227;-0.029227;0.029227;1.000000;0.235294;0.282353;0.227451
445605.13130196;5696557.26529892;472.77325012;15420.000000;1.000000;1.000000;1.000000;1.000000;-0.064825;0.064825;-0.064825;1.000000;0.203922;0.258824;0.227451
445605.14790161;5696557.23819931;472.76434996;16962.000000;1.000000;1.000000;1.000000;1.000000;-0.091801;0.091801;-0.091801;1.000000;0.231373;0.278431;0.247059
445605.20070179;5696557.19389923;472.74524977;22616.000000;1.000000;1.000000;1.000000;1.000000;-0.136101;0.136101;-0.136101;1.000000;0.32549;0.360784;0.32549
445605.16430099;5696557.22989853;472.74634983;19018.000000;1.000000;1.000000;1.000000;1.000000;-0.100128;0.100128;-0.100128;1.000000;0.286275;0.301961;0.254902
445605.44770153;5696557.31639870;472.70435001;34438.000000;1.000000;1.000000;1.000000;1.000000;0.013601;-0.013601;0.013601;1.000000;0.54902;0.529412;0.454902
445605.15870102;5696557.26789864;472.74195005;19789.000000;1.000000;1.000000;1.000000;1.000000;-0.062104;0.062104;-0.062104;1.000000;0.313725;0.305882;0.262745
445605.45260151;5696557.22239883;472.71274998;54227.000000;1.000000;1.000000;1.000000;1.000000;0.107601;-0.107601;0.107601;1.000000;0.831373;0.835294;0.784314
445605.41530140;5696557.22130020;472.70874979;18504.000000;1.000000;1.000000;1.000000;1.000000;0.108700;-0.108700;0.108700;1.000000;0.290196;0.290196;0.239216
445605.41170128;5696557.25889977;472.71134998;47288.000000;1.000000;1.000000;1.000000;1.000000;0.071100;-0.071100;0.071100;1.000000;0.729412;0.729412;0.690196
445605.41060169;5696557.29640015;472.70935013;7710.000000;1.000000;1.000000;1.000000;1.000000;0.033600;-0.033600;0.033600;1.000000;0.129412;0.121569;0.0823529
445605.30690201;5696557.14239891;472.71915009;48573.000000;1.000000;1.000000;1.000000;1.000000;-0.187601;0.187601;-0.187601;1.000000;0.772549;0.733333;0.705882
445605.26820190;5696557.17869957;472.72015001;13621.000000;1.000000;1.000000;1.000000;1.000000;-0.151300;0.151300;-0.151300;1.000000;0.231373;0.207843;0.176471
445605.03730209;5696557.31809814;472.79064991;34181.000000;1.000000;1.000000;1.000000;1.000000;-0.090362;0.090362;-0.090362;1.000000;0.498039;0.533333;0.529412
445605.40980156;5696557.33399971;472.70044996;33667.000000;1.000000;1.000000;1.000000;1.000000;-0.004000;0.004000;-0.004000;1.000000;0.54902;0.513725;0.439216
445605.44740112;5696557.33749969;472.70454981;36751.000000;1.000000;1.000000;1.000000;1.000000;-0.007500;0.007500;-0.007500;1.000000;0.596078;0.564706;0.478431
445605.41020210;5696557.31519897;472.70494987;33153.000000;1.000000;1.000000;1.000000;1.000000;0.014801;-0.014801;0.014801;1.000000;0.529412;0.505882;0.447059
445605.12890156;5696557.28439911;472.76174976;15163.000000;1.000000;1.000000;1.000000;1.000000;0.045646;-0.045646;0.045646;1.000000;0.219608;0.243137;0.207843
445605.17010124;5696557.28569992;472.73105003;12593.000000;1.000000;1.000000;1.000000;1.000000;-0.044300;0.044300;-0.044300;1.000000;0.196078;0.203922;0.152941
445605.25050171;5696557.16849907;472.72854998;15677.000000;1.000000;1.000000;1.000000;1.000000;-0.161501;0.161501;-0.161501;1.000000;0.243137;0.247059;0.219608
445605.24700172;5696557.20389946;472.72415020;19532.000000;1.000000;1.000000;1.000000;1.000000;-0.126101;0.126101;-0.126101;1.000000;0.309804;0.305882;0.258824
445605.09390171;5696557.31769951;472.77915003;18247.000000;1.000000;1.000000;1.000000;1.000000;-0.035195;0.035195;-0.035195;1.000000;0.25098;0.298039;0.278431
445605.17650135;5696557.21239861;472.74904968;25700.000000;1.000000;1.000000;1.000000;1.000000;-0.117601;0.117601;-0.117601;1.000000;0.372549;0.411765;0.364706
445605.19580086;5696557.30679901;472.72314980;15677.000000;1.000000;1.000000;1.000000;1.000000;-0.023293;0.023293;-0.023293;1.000000;0.239216;0.25098;0.192157
445605.17150124;5696557.23159988;472.74445011;16705.000000;1.000000;1.000000;1.000000;1.000000;-0.098400;0.098400;-0.098400;1.000000;0.254902;0.266667;0.219608
445605.13100155;5696557.26519974;472.78025009;7967.000000;1.000000;1.000000;1.000000;1.000000;0.064931;-0.064931;0.064931;1.000000;0.0745098;0.14902;0.117647
445605.42080124;5696557.30489929;472.70764973;24415.000000;1.000000;1.000000;1.000000;1.000000;0.025101;-0.025101;0.025101;1.000000;0.392157;0.376471;0.329412
445605.11700161;5696557.21059998;472.76965000;37779.000000;1.000000;1.000000;1.000000;1.000000;-0.119808;0.119808;-0.119808;1.000000;0.54902;0.6;0.556863
445605.26870163;5696557.14099892;472.73374989;17990.000000;1.000000;1.000000;1.000000;1.000000;-0.189001;0.189001;-0.189001;1.000000;0.286275;0.278431;0.25098
445605.37230118;5696557.33279999;472.70114996;7967.000000;1.000000;1.000000;1.000000;1.000000;0.002800;-0.002800;0.002800;1.000000;0.141176;0.121569;0.0784314
445605.19350155;5696557.21329887;472.73815014;12079.000000;1.000000;1.000000;1.000000;1.000000;-0.116774;0.116774;-0.116774;1.000000;0.180392;0.196078;0.152941
445605.19130142;5696557.25819977;472.72235014;22102.000000;1.000000;1.000000;1.000000;1.000000;-0.071826;0.071826;-0.071826;1.000000;0.360784;0.333333;0.298039
445605.03780182;5696557.32499893;472.79304983;26985.000000;1.000000;1.000000;1.000000;1.000000;-0.089215;0.089215;-0.089215;1.000000;0.384314;0.427451;0.415686
445605.11470135;5696557.33009918;472.75694992;24415.000000;1.000000;1.000000;1.000000;1.000000;-0.012176;0.012176;-0.012176;1.000000;0.345098;0.392157;0.345098
445605.26130112;5696557.32659920;472.71234991;37779.000000;1.000000;1.000000;1.000000;1.000000;-0.003401;0.003401;-0.003401;1.000000;0.584314;0.580392;0.541176
445605.26410110;5696557.25399979;472.70694973;39835.000000;1.000000;1.000000;1.000000;1.000000;-0.076000;0.076000;-0.076000;1.000000;0.619608;0.611765;0.576471
445605.16390141;5696557.18069847;472.75745012;48316.000000;1.000000;1.000000;1.000000;1.000000;-0.149326;0.149326;-0.149326;1.000000;0.729412;0.752941;0.701961
445605.27620132;5696557.18729980;472.71595003;16448.000000;1.000000;1.000000;1.000000;1.000000;-0.142700;0.142700;-0.142700;1.000000;0.282353;0.25098;0.192157
445605.19830139;5696557.33230026;472.72114994;24158.000000;1.000000;1.000000;1.000000;1.000000;0.002300;-0.002300;0.002300;1.000000;0.360784;0.384314;0.309804
445605.13470085;5696557.22749908;472.77524998;48059.000000;1.000000;1.000000;1.000000;1.000000;-0.102503;0.102503;-0.102503;1.000000;0.698039;0.756863;0.713725
445605.17050179;5696557.26689919;472.73544981;21588.000000;1.000000;1.000000;1.000000;1.000000;-0.063101;0.063101;-0.063101;1.000000;0.345098;0.333333;0.282353
445605.22630127;5696557.25049980;472.70755007;5654.000000;1.000000;1.000000;1.000000;1.000000;-0.079551;0.079551;-0.079551;1.000000;0.101961;0.0862745;0.0705882
445605.07530220;5696557.30049904;472.79215004;30840.000000;1.000000;1.000000;1.000000;1.000000;-0.059416;0.059416;-0.059416;1.000000;0.435294;0.494118;0.470588
445605.46060188;5696557.23329933;472.71324970;23644.000000;1.000000;1.000000;1.000000;1.000000;0.096701;-0.096701;0.096701;1.000000;0.364706;0.368627;0.329412
445605.20170219;5696557.22209938;472.72935011;2827.000000;1.000000;1.000000;1.000000;1.000000;-0.107901;0.107901;-0.107901;1.000000;0.054902;0.0431373;0.0235294
445605.26300152;5696557.31939896;472.71234991;37008.000000;1.000000;1.000000;1.000000;1.000000;-0.010601;0.010601;-0.010601;1.000000;0.572549;0.568627;0.529412
445605.22800167;5696557.24329956;472.70744993;5654.000000;1.000000;1.000000;1.000000;1.000000;-0.086708;0.086708;-0.086708;1.000000;0.101961;0.0862745;0.054902
445605.26530178;5696557.24219902;472.70685007;39835.000000;1.000000;1.000000;1.000000;1.000000;-0.087801;0.087801;-0.087801;1.000000;0.623529;0.607843;0.568627
445605.19540222;5696557.16389854;472.74935009;45489.000000;1.000000;1.000000;1.000000;1.000000;-0.166119;0.166119;-0.166119;1.000000;0.686275;0.705882;0.686275
445605.10790165;5696557.29529961;472.78424980;14649.000000;1.000000;1.000000;1.000000;1.000000;-0.039550;0.039550;-0.039550;1.000000;0.196078;0.243137;0.223529
445605.25970085;5696557.18879898;472.72225000;12850.000000;1.000000;1.000000;1.000000;1.000000;-0.141203;0.141203;-0.141203;1.000000;0.211765;0.196078;0.164706
445605.18240173;5696557.24249847;472.73334982;32382.000000;1.000000;1.000000;1.000000;1.000000;-0.087502;0.087502;-0.087502;1.000000;0.521569;0.490196;0.443137
445605.21770103;5696557.28619965;472.71455004;33410.000000;1.000000;1.000000;1.000000;1.000000;-0.043800;0.043800;-0.043800;1.000000;0.521569;0.513725;0.478431
445605.19930084;5696557.20339973;472.74294998;17476.000000;1.000000;1.000000;1.000000;1.000000;-0.126600;0.126600;-0.126600;1.000000;0.25098;0.278431;0.254902
445605.16280182;5696557.23939903;472.74644997;23644.000000;1.000000;1.000000;1.000000;1.000000;-0.090680;0.090680;-0.090680;1.000000;0.376471;0.364706;0.321569
445605.34900101;5696557.26470001;472.71324970;22616.000000;1.000000;1.000000;1.000000;1.000000;0.065300;-0.065300;0.065300;1.000000;0.356863;0.34902;0.298039
445605.41250141;5696557.26819809;472.71145012;40349.000000;1.000000;1.000000;1.000000;1.000000;0.061802;-0.061802;0.061802;1.000000;0.623529;0.623529;0.584314
445605.41150101;5696557.30569847;472.70725014;16448.000000;1.000000;1.000000;1.000000;1.000000;0.024302;-0.024302;0.024302;1.000000;0.266667;0.254902;0.207843
445605.44920166;5696557.30699928;472.70424988;34181.000000;1.000000;1.000000;1.000000;1.000000;0.023001;-0.023001;0.023001;1.000000;0.54902;0.52549;0.458824
445605.37860115;5696557.22929962;472.70944979;20046.000000;1.000000;1.000000;1.000000;1.000000;0.100700;-0.100700;0.100700;1.000000;0.317647;0.309804;0.270588
445605.33870132;5696557.22830017;472.70994999;15677.000000;1.000000;1.000000;1.000000;1.000000;0.101700;-0.101700;0.101700;1.000000;0.247059;0.247059;0.2
445605.30350121;5696557.22469910;472.70604994;52685.000000;1.000000;1.000000;1.000000;1.000000;0.105301;-0.105301;0.105301;1.000000;0.811765;0.811765;0.764706
445605.26590164;5696557.22569855;472.71134998;25443.000000;1.000000;1.000000;1.000000;1.000000;-0.104301;0.104301;-0.104301;1.000000;0.407843;0.392157;0.345098
445605.30000122;5696557.26239975;472.70634987;36237.000000;1.000000;1.000000;1.000000;1.000000;0.067600;-0.067600;0.067600;1.000000;0.564706;0.560784;0.505882
445605.22740181;5696557.26209839;472.70764973;9509.000000;1.000000;1.000000;1.000000;1.000000;-0.067924;0.067924;-0.067924;1.000000;0.160784;0.141176;0.129412
445605.26350220;5696557.29839905;472.70974972;30583.000000;1.000000;1.000000;1.000000;1.000000;-0.031601;0.031601;-0.031601;1.000000;0.47451;0.47451;0.427451
445605.33500107;5696557.33849915;472.70884993;25443.000000;1.000000;1.000000;1.000000;1.000000;-0.008499;0.008499;-0.008499;1.000000;0.4;0.392157;0.34902
445605.29740150;5696557.33729942;472.71175005;35209.000000;1.000000;1.000000;1.000000;1.000000;-0.007299;0.007299;-0.007299;1.000000;0.545098;0.545098;0.501961
445605.08620174;5696557.29249962;472.79255011;28527.000000;1.000000;1.000000;1.000000;1.000000;-0.055324;0.055324;-0.055324;1.000000;0.403922;0.454902;0.439216
445605.23320206;5696557.13729866;472.73675014;57568.000000;1.000000;1.000000;1.000000;1.000000;-0.192701;0.192701;-0.192701;1.000000;0.866667;0.886275;0.87451
445605.22990139;5696557.17729958;472.73705008;20817.000000;1.000000;1.000000;1.000000;1.000000;-0.152700;0.152700;-0.152700;1.000000;0.305882;0.329412;0.298039
445605.07790192;5696557.24449928;472.77294971;23644.000000;1.000000;1.000000;1.000000;1.000000;-0.098534;0.098534;-0.098534;1.000000;0.32549;0.388235;0.32549
445605.03920181;5696557.28079803;472.77395012;18247.000000;1.000000;1.000000;1.000000;1.000000;-0.100537;0.100537;-0.100537;1.000000;0.254902;0.298039;0.262745
445605.15330132;5696557.28479965;472.73955013;15163.000000;1.000000;1.000000;1.000000;1.000000;-0.045200;0.045200;-0.045200;1.000000;0.227451;0.243137;0.192157
445605.25620087;5696557.17739876;472.72424986;11822.000000;1.000000;1.000000;1.000000;1.000000;-0.152658;0.152658;-0.152658;1.000000;0.192157;0.184314;0.145098
445605.19860085;5696557.25989922;472.72034981;21074.000000;1.000000;1.000000;1.000000;1.000000;-0.070101;0.070101;-0.070101;1.000000;0.345098;0.321569;0.290196
445605.04500206;5696557.32670029;472.79334976;27242.000000;1.000000;1.000000;1.000000;1.000000;-0.081941;0.081941;-0.081941;1.000000;0.388235;0.427451;0.443137
445605.12180145;5696557.32950027;472.75495007;31354.000000;1.000000;1.000000;1.000000;1.000000;-0.005100;0.005100;-0.005100;1.000000;0.45098;0.501961;0.439216
445605.06500156;5696557.31769951;472.79654982;28013.000000;1.000000;1.000000;1.000000;1.000000;-0.063086;0.063086;-0.063086;1.000000;0.396078;0.447059;0.415686
445605.16030128;5696557.23959930;472.75094988;39064.000000;1.000000;1.000000;1.000000;1.000000;-0.090427;0.090427;-0.090427;1.000000;0.592157;0.603922;0.564706
445605.37360199;5696557.32329948;472.70335009;6939.000000;1.000000;1.000000;1.000000;1.000000;-0.006701;0.006701;-0.006701;1.000000;0.121569;0.105882;0.0705882
445605.14560135;5696557.25959976;472.75525000;29041.000000;1.000000;1.000000;1.000000;1.000000;-0.070400;0.070400;-0.070400;1.000000;0.431373;0.458824;0.419608
445605.18300159;5696557.18369873;472.75365021;58853.000000;1.000000;1.000000;1.000000;1.000000;-0.146301;0.146301;-0.146301;1.000000;0.886275;0.909804;0.870588
445605.10420139;5696557.32160004;472.76574995;8224.000000;1.000000;1.000000;1.000000;1.000000;-0.024181;0.024181;-0.024181;1.000000;0.101961;0.141176;0.117647
445605.37510117;5696557.26700027;472.70974972;29041.000000;1.000000;1.000000;1.000000;1.000000;-0.063000;0.063000;-0.063000;1.000000;0.462745;0.447059;0.403922
445605.45020111;5696557.26939972;472.70855000;17476.000000;1.000000;1.000000;1.000000;1.000000;0.060600;-0.060600;0.060600;1.000000;0.286275;0.266667;0.223529
445605.37400158;5696557.30449875;472.70785000;22359.000000;1.000000;1.000000;1.000000;1.000000;-0.025501;0.025501;-0.025501;1.000000;0.34902;0.34902;0.305882
445605.37650116;5696557.25749977;472.70974972;36494.000000;1.000000;1.000000;1.000000;1.000000;-0.072500;0.072500;-0.072500;1.000000;0.572549;0.560784;0.517647
445605.41990097;5696557.34239967;472.70104982;25700.000000;1.000000;1.000000;1.000000;1.000000;-0.012400;0.012400;-0.012400;1.000000;0.427451;0.396078;0.301961
445605.33890160;5696557.25630005;472.71264984;32125.000000;1.000000;1.000000;1.000000;1.000000;0.073700;-0.073700;0.073700;1.000000;0.501961;0.498039;0.447059
445605.45160110;5696557.25989922;472.70844986;8738.000000;1.000000;1.000000;1.000000;1.000000;0.070101;-0.070101;0.070101;1.000000;0.14902;0.133333;0.0980392
445605.37530144;5696557.29500015;472.71014978;40092.000000;1.000000;1.000000;1.000000;1.000000;-0.035000;0.035000;-0.035000;1.000000;0.619608;0.615686;0.572549
445605.44830139;5696557.29769905;472.70414974;31354.000000;1.000000;1.000000;1.000000;1.000000;0.032301;-0.032301;0.032301;1.000000;0.505882;0.478431;0.419608
445605.14260109;5696557.20819862;472.76844980;44461.000000;1.000000;1.000000;1.000000;1.000000;-0.121801;0.121801;-0.121801;1.000000;0.643137;0.701961;0.654902
445605.15690144;5696557.20929916;472.76445009;40863.000000;1.000000;1.000000;1.000000;1.000000;-0.120701;0.120701;-0.120701;1.000000;0.580392;0.65098;0.6
445605.11350163;5696557.25509842;472.78394987;44461.000000;1.000000;1.000000;1.000000;1.000000;-0.076086;0.076086;-0.076086;1.000000;0.647059;0.698039;0.670588
445605.14940174;5696557.29439934;472.74184992;32382.000000;1.000000;1.000000;1.000000;1.000000;-0.035601;0.035601;-0.035601;1.000000;0.482353;0.513725;0.454902
445605.14830215;5696557.33189972;472.74224998;23130.000000;1.000000;1.000000;1.000000;1.000000;0.001900;-0.001900;0.001900;1.000000;0.317647;0.388235;0.290196
445605.31210144;5696557.21689804;472.70634987;45489.000000;1.000000;1.000000;1.000000;1.000000;-0.113102;0.113102;-0.113102;1.000000;0.705882;0.701961;0.65098
445605.34960182;5696557.22029884;472.71035006;16191.000000;1.000000;1.000000;1.000000;1.000000;0.109701;-0.109701;0.109701;1.000000;0.254902;0.254902;0.203922
445605.27700146;5696557.21769913;472.70944979;25700.000000;1.000000;1.000000;1.000000;1.000000;-0.112301;0.112301;-0.112301;1.000000;0.411765;0.396078;0.34902
445605.40690144;5696557.15669830;472.70755007;11565.000000;1.000000;1.000000;1.000000;1.000000;-0.173302;0.173302;-0.173302;1.000000;0.203922;0.176471;0.117647
445605.27340134;5696557.25309952;472.70734980;36494.000000;1.000000;1.000000;1.000000;1.000000;-0.076900;0.076900;-0.076900;1.000000;0.568627;0.560784;0.521569
445605.31090172;5696557.25429924;472.70674994;31354.000000;1.000000;1.000000;1.000000;1.000000;-0.075701;0.075701;-0.075701;1.000000;0.486275;0.486275;0.431373
445605.25750168;5696557.16789825;472.72655012;16191.000000;1.000000;1.000000;1.000000;1.000000;-0.162127;0.162127;-0.162127;1.000000;0.262745;0.25098;0.207843
445605.10810097;5696557.31419952;472.76814987;8481.000000;1.000000;1.000000;1.000000;1.000000;-0.024540;0.024540;-0.024540;1.000000;0.0980392;0.14902;0.113725
445605.17980202;5696557.31289871;472.72944977;19275.000000;1.000000;1.000000;1.000000;1.000000;-0.017101;0.017101;-0.017101;1.000000;0.282353;0.309804;0.243137
445605.27220161;5696557.29059799;472.70774986;23901.000000;1.000000;1.000000;1.000000;1.000000;-0.039402;0.039402;-0.039402;1.000000;0.372549;0.368627;0.32549
445605.23430164;5696557.28709991;472.71064999;44204.000000;1.000000;1.000000;1.000000;1.000000;-0.042900;0.042900;-0.042900;1.000000;0.686275;0.678431;0.643137
445605.34370144;5696557.33069809;472.70914986;27499.000000;1.000000;1.000000;1.000000;1.000000;-0.000698;0.000698;-0.000698;1.000000;0.427451;0.423529;0.380392
445605.30850132;5696557.32929810;472.70744993;37779.000000;1.000000;1.000000;1.000000;1.000000;-0.000702;0.000702;-0.000702;1.000000;0.580392;0.584314;0.545098
445605.27080162;5696557.32799919;472.71274998;39321.000000;1.000000;1.000000;1.000000;1.000000;-0.002001;0.002001;-0.002001;1.000000;0.603922;0.607843;0.568627
445605.44190224;5696557.23279961;472.71234991;53456.000000;1.000000;1.000000;1.000000;1.000000;0.097200;-0.097200;0.097200;1.000000;0.819608;0.823529;0.776471
445605.40450104;5696557.23159988;472.71064999;16962.000000;1.000000;1.000000;1.000000;1.000000;-0.098400;0.098400;-0.098400;1.000000;0.270588;0.262745;0.215686
445605.40330132;5696557.26909836;472.71105005;48316.000000;1.000000;1.000000;1.000000;1.000000;-0.060902;0.060902;-0.060902;1.000000;0.745098;0.741176;0.701961
445605.40210159;5696557.30429848;472.70674994;9252.000000;1.000000;1.000000;1.000000;1.000000;-0.025702;0.025702;-0.025702;1.000000;0.156863;0.145098;0.0980392
445605.47380169;5696557.34439857;472.70344975;37522.000000;1.000000;1.000000;1.000000;1.000000;-0.014399;0.014399;-0.014399;1.000000;0.615686;0.572549;0.486275
445605.20920189;5696557.22379883;472.72275021;3855.000000;1.000000;1.000000;1.000000;1.000000;-0.106201;0.106201;-0.106201;1.000000;0.0784314;0.054902;0.0352941
445605.36960133;5696557.16229828;472.71754982;22616.000000;1.000000;1.000000;1.000000;1.000000;-0.167702;0.167702;-0.167702;1.000000;0.372549;0.345098;0.294118
445605.18370159;5696557.21179970;472.74475004;20303.000000;1.000000;1.000000;1.000000;1.000000;-0.118200;0.118200;-0.118200;1.000000;0.294118;0.32549;0.278431
445605.22360142;5696557.20829971;472.73255016;5654.000000;1.000000;1.000000;1.000000;1.000000;-0.121737;0.121737;-0.121737;1.000000;0.0941176;0.0901961;0.0666667
445605.13810165;5696557.18079956;472.75855019;28013.000000;1.000000;1.000000;1.000000;1.000000;-0.149200;0.149200;-0.149200;1.000000;0.403922;0.443137;0.407843
445605.14130219;5696557.22229965;472.77325012;40606.000000;1.000000;1.000000;1.000000;1.000000;-0.107700;0.107700;-0.107700;1.000000;0.580392;0.647059;0.607843
445605.36920174;5696557.23019989;472.71134998;23644.000000;1.000000;1.000000;1.000000;1.000000;-0.099800;0.099800;-0.099800;1.000000;0.372549;0.364706;0.329412
445605.33170135;5696557.22669800;472.70734980;23901.000000;1.000000;1.000000;1.000000;1.000000;0.103302;-0.103302;0.103302;1.000000;0.368627;0.372549;0.321569
445605.29420097;5696557.22550018;472.70564987;45232.000000;1.000000;1.000000;1.000000;1.000000;0.104500;-0.104500;0.104500;1.000000;0.698039;0.698039;0.654902
445605.18510159;5696557.22349937;472.73794987;15934.000000;1.000000;1.000000;1.000000;1.000000;-0.106501;0.106501;-0.106501;1.000000;0.247059;0.254902;0.188235
445605.29300125;5696557.26299866;472.70604994;29298.000000;1.000000;1.000000;1.000000;1.000000;0.067001;-0.067001;0.067001;1.000000;0.458824;0.45098;0.396078
445605.21780212;5696557.26059921;472.70954992;7710.000000;1.000000;1.000000;1.000000;1.000000;-0.069401;0.069401;-0.069401;1.000000;0.129412;0.117647;0.101961
445605.25410088;5696557.29920013;472.71164991;31868.000000;1.000000;1.000000;1.000000;1.000000;-0.030880;0.030880;-0.030880;1.000000;0.494118;0.494118;0.443137
445605.14040192;5696557.25759895;472.76195004;24158.000000;1.000000;1.000000;1.000000;1.000000;-0.072401;0.072401;-0.072401;1.000000;0.34902;0.384314;0.352941
445605.46210106;5696557.22389801;472.71315004;45489.000000;1.000000;1.000000;1.000000;1.000000;0.106102;-0.106102;0.106102;1.000000;0.698039;0.705882;0.654902
445605.42470177;5696557.22270020;472.70914986;29555.000000;1.000000;1.000000;1.000000;1.000000;0.107300;-0.107300;0.107300;1.000000;0.458824;0.458824;0.403922
445605.38720139;5696557.22149857;472.70974972;21331.000000;1.000000;1.000000;1.000000;1.000000;0.108501;-0.108501;0.108501;1.000000;0.337255;0.329412;0.286275
445605.17920120;5696557.25910004;472.73344995;33667.000000;1.000000;1.000000;1.000000;1.000000;-0.070900;0.070900;-0.070900;1.000000;0.545098;0.513725;0.45098
445605.22880180;5696557.23139961;472.71674969;3341.000000;1.000000;1.000000;1.000000;1.000000;-0.098601;0.098601;-0.098601;1.000000;0.0627451;0.0509804;0.0352941
445605.25820168;5696557.19819839;472.72235014;10794.000000;1.000000;1.000000;1.000000;1.000000;-0.131820;0.131820;-0.131820;1.000000;0.184314;0.168627;0.12549
445605.31980141;5696557.27449997;472.70734980;30069.000000;1.000000;1.000000;1.000000;1.000000;0.055500;-0.055500;0.055500;1.000000;0.470588;0.462745;0.415686
445605.36060150;5696557.19119843;472.71754982;31354.000000;1.000000;1.000000;1.000000;1.000000;-0.138802;0.138802;-0.138802;1.000000;0.498039;0.482353;0.423529
445605.20550163;5696557.33169945;472.71684982;22616.000000;1.000000;1.000000;1.000000;1.000000;0.001699;-0.001699;0.001699;1.000000;0.345098;0.356863;0.294118
445605.06600197;5696557.29909904;472.78935005;34695.000000;1.000000;1.000000;1.000000;1.000000;-0.068269;0.068269;-0.068269;1.000000;0.494118;0.54902;0.521569
445605.08390148;5696557.31609924;472.79034998;20560.000000;1.000000;1.000000;1.000000;1.000000;-0.045168;0.045168;-0.045168;1.000000;0.282353;0.329412;0.321569
445605.12560089;5696557.20049866;472.76524975;25700.000000;1.000000;1.000000;1.000000;1.000000;-0.129508;0.129508;-0.129508;1.000000;0.356863;0.415686;0.372549
445605.30630119;5696557.13539894;472.71904995;41120.000000;1.000000;1.000000;1.000000;1.000000;-0.194601;0.194601;-0.194601;1.000000;0.666667;0.619608;0.596078
445605.19240196;5696557.18289955;472.75175001;56026.000000;1.000000;1.000000;1.000000;1.000000;-0.147132;0.147132;-0.147132;1.000000;0.843137;0.870588;0.835294
445605.37130173;5696557.15509995;472.71754982;23901.000000;1.000000;1.000000;1.000000;1.000000;-0.174900;0.174900;-0.174900;1.000000;0.392157;0.364706;0.317647
445605.23980148;5696557.22339828;472.71714975;9252.000000;1.000000;1.000000;1.000000;1.000000;-0.106602;0.106602;-0.106602;1.000000;0.156863;0.141176;0.113725
445605.23990162;5696557.20459946;472.72625019;22359.000000;1.000000;1.000000;1.000000;1.000000;-0.125401;0.125401;-0.125401;1.000000;0.34902;0.345098;0.301961
445605.16170128;5696557.23009880;472.75094988;19532.000000;1.000000;1.000000;1.000000;1.000000;-0.099965;0.099965;-0.099965;1.000000;0.27451;0.321569;0.262745
445605.42200096;5696557.26959808;472.71194984;21331.000000;1.000000;1.000000;1.000000;1.000000;0.060402;-0.060402;0.060402;1.000000;0.333333;0.329412;0.290196
445605.45730217;5696557.26879890;472.70414974;20560.000000;1.000000;1.000000;1.000000;1.000000;0.061201;-0.061201;0.061201;1.000000;0.337255;0.309804;0.27451
445605.19900139;5696557.24109848;472.72475006;12593.000000;1.000000;1.000000;1.000000;1.000000;-0.088902;0.088902;-0.088902;1.000000;0.207843;0.192157;0.164706
445605.11970146;5696557.31089981;472.76165010;15163.000000;1.000000;1.000000;1.000000;1.000000;-0.020404;0.020404;-0.020404;1.000000;0.207843;0.254902;0.2
445605.12460144;5696557.21909912;472.77474977;39578.000000;1.000000;1.000000;1.000000;1.000000;-0.110924;0.110924;-0.110924;1.000000;0.568627;0.627451;0.580392
445605.33960159;5696557.23759850;472.71014978;16448.000000;1.000000;1.000000;1.000000;1.000000;0.092402;-0.092402;0.092402;1.000000;0.258824;0.258824;0.211765
445605.30240162;5696557.23649796;472.70375015;48316.000000;1.000000;1.000000;1.000000;1.000000;0.093502;-0.093502;0.093502;1.000000;0.741176;0.745098;0.701961
445605.24750145;5696557.25089844;472.70615007;17733.000000;1.000000;1.000000;1.000000;1.000000;-0.079102;0.079102;-0.079102;1.000000;0.282353;0.27451;0.247059
445605.32770164;5696557.33679970;472.71315004;38807.000000;1.000000;1.000000;1.000000;1.000000;-0.006800;0.006800;-0.006800;1.000000;0.6;0.6;0.552941
445605.29020126;5696557.33559998;472.71145012;35723.000000;1.000000;1.000000;1.000000;1.000000;-0.005600;0.005600;-0.005600;1.000000;0.552941;0.552941;0.505882
445605.25780113;5696557.21699913;472.71784975;21588.000000;1.000000;1.000000;1.000000;1.000000;-0.113030;0.113030;-0.113030;1.000000;0.34902;0.329412;0.282353
445605.16630180;5696557.15489967;472.75255014;32125.000000;1.000000;1.000000;1.000000;1.000000;-0.175101;0.175101;-0.175101;1.000000;0.486275;0.505882;0.45098
445605.35620125;5696557.26639946;472.71355011;23387.000000;1.000000;1.000000;1.000000;1.000000;0.063601;-0.063601;0.063601;1.000000;0.372549;0.360784;0.313725
445605.13390167;5696557.24619873;472.78014996;23644.000000;1.000000;1.000000;1.000000;1.000000;-0.083813;0.083813;-0.083813;1.000000;0.313725;0.388235;0.368627
445605.27710159;5696557.19660004;472.71385004;19532.000000;1.000000;1.000000;1.000000;1.000000;-0.133400;0.133400;-0.133400;1.000000;0.333333;0.298039;0.235294
445605.40500172;5696557.18489845;472.70545008;9509.000000;1.000000;1.000000;1.000000;1.000000;-0.145102;0.145102;-0.145102;1.000000;0.160784;0.14902;0.0980392
