//X;Y;Z;Intensity;Return Number;Number Of Returns;Scan Direction Flag;Point Source ID;C2M signed distances[-][<0.8];C2M signed distances[<0.4];C2M signed distances[-][<0.2];Stump37;Rf;Gf;Bf
299
445626.23770149;5696558.29179962;471.52414991;37779.000000;1.000000;1.000000;1.000000;1.000000;0.038200;-0.038200;0.038200;1.000000;0.580392;0.584314;0.537255
445626.16410072;5696558.25199898;471.51804974;33924.000000;1.000000;1.000000;1.000000;1.000000;0.078001;-0.078001;0.078001;1.000000;0.529412;0.52549;0.458824
445626.53950127;5696558.37119873;471.52944996;24158.000000;1.000000;1.000000;1.000000;1.000000;-0.048126;0.048126;-0.048126;1.000000;0.384314;0.372549;0.333333
445626.48800095;5696558.32219894;471.53114988;23901.000000;1.000000;1.000000;1.000000;1.000000;0.076773;-0.076773;0.076773;1.000000;0.380392;0.364706;0.333333
445626.55570229;5696558.47239883;471.53364994;21588.000000;1.000000;1.000000;1.000000;1.000000;0.019375;-0.019375;0.019375;1.000000;0.345098;0.333333;0.290196
445626.15440186;5696558.50269897;471.52755024;34181.000000;1.000000;1.000000;1.000000;1.000000;-0.097475;0.097475;-0.097475;1.000000;0.533333;0.529412;0.482353
445626.29310234;5696558.46179970;471.52864983;39064.000000;1.000000;1.000000;1.000000;1.000000;0.041225;-0.041225;0.041225;1.000000;0.607843;0.6;0.54902
445626.47620209;5696558.34889801;471.53795006;23901.000000;1.000000;1.000000;1.000000;1.000000;-0.090177;0.090177;-0.090177;1.000000;0.368627;0.368627;0.337255
445626.20030220;5696558.31859978;471.52745010;37779.000000;1.000000;1.000000;1.000000;1.000000;0.011400;-0.011400;0.011400;1.000000;0.588235;0.584314;0.517647
445626.25790222;5696558.46259888;471.53405001;36237.000000;1.000000;1.000000;1.000000;1.000000;0.006025;-0.006025;0.006025;1.000000;0.564706;0.556863;0.509804
445626.57390221;5696558.49399956;471.53945019;28784.000000;1.000000;1.000000;1.000000;1.000000;-0.009525;0.009525;-0.009525;1.000000;0.447059;0.443137;0.4
445626.16160210;5696558.28009995;471.52755024;30840.000000;1.000000;1.000000;1.000000;1.000000;0.049900;-0.049900;0.049900;1.000000;0.482353;0.478431;0.411765
445626.05280121;5696558.47219856;471.53894999;28527.000000;1.000000;1.000000;1.000000;1.000000;-0.142199;0.142199;-0.142199;1.000000;0.435294;0.447059;0.384314
445626.23470123;5696558.56299980;471.52955009;29812.000000;1.000000;1.000000;1.000000;1.000000;-0.017176;0.017176;-0.017176;1.000000;0.462745;0.462745;0.419608
445626.04220207;5696558.30289848;471.52705004;32896.000000;1.000000;1.000000;1.000000;1.000000;0.027102;-0.027102;0.027102;1.000000;0.513725;0.517647;0.419608
445626.37350090;5696558.35449799;471.49375011;34695.000000;1.000000;1.000000;1.000000;1.000000;0.121624;-0.121624;0.121624;1.000000;0.533333;0.537255;0.501961
445626.55740173;5696558.43729980;471.52864983;31868.000000;1.000000;1.000000;1.000000;1.000000;0.052978;-0.052978;0.052978;1.000000;0.498039;0.490196;0.443137
445626.01510246;5696558.46869858;471.53945019;20046.000000;1.000000;1.000000;1.000000;1.000000;-0.138699;0.138699;-0.138699;1.000000;0.309804;0.317647;0.258824
445626.27230080;5696558.56419952;471.52895023;22616.000000;1.000000;1.000000;1.000000;1.000000;0.020424;-0.020424;0.020424;1.000000;0.352941;0.352941;0.309804
445626.09280212;5696558.39849861;471.53744986;37779.000000;1.000000;1.000000;1.000000;1.000000;-0.068557;0.068557;-0.068557;1.000000;0.576471;0.596078;0.486275
445626.01520164;5696558.49669846;471.54215004;28270.000000;1.000000;1.000000;1.000000;1.000000;-0.166698;0.166698;-0.166698;1.000000;0.447059;0.439216;0.376471
445626.46480186;5696558.40359886;471.54045012;46260.000000;1.000000;1.000000;1.000000;1.000000;-0.123822;0.123822;-0.123822;1.000000;0.713725;0.713725;0.67451
445626.45970161;5696558.29220016;471.52714970;30326.000000;1.000000;1.000000;1.000000;1.000000;0.111291;-0.111291;0.111291;1.000000;0.470588;0.470588;0.427451
445626.55770119;5696558.41849907;471.53315022;40863.000000;1.000000;1.000000;1.000000;1.000000;0.071536;-0.071536;0.071536;1.000000;0.639216;0.627451;0.580392
445626.04120071;5696558.29360016;471.52924969;25700.000000;1.000000;1.000000;1.000000;1.000000;0.036400;-0.036400;0.036400;1.000000;0.4;0.403922;0.309804
445626.07660110;5696558.32300003;471.53125002;39835.000000;1.000000;1.000000;1.000000;1.000000;0.007064;-0.007064;0.007064;1.000000;0.623529;0.619608;0.509804
445626.55520065;5696558.46549805;471.53125002;21845.000000;1.000000;1.000000;1.000000;1.000000;0.025949;-0.025949;0.025949;1.000000;0.352941;0.333333;0.286275
445626.03930099;5696558.52719887;471.53894999;28784.000000;1.000000;1.000000;1.000000;1.000000;-0.197199;0.197199;-0.197199;1.000000;0.45098;0.447059;0.368627
445626.26050194;5696558.41569908;471.53364994;30583.000000;1.000000;1.000000;1.000000;1.000000;0.008625;-0.008625;0.008625;1.000000;0.478431;0.47451;0.423529
445626.00620087;5696558.45080002;471.54355003;31868.000000;1.000000;1.000000;1.000000;1.000000;-0.120800;0.120800;-0.120800;1.000000;0.486275;0.494118;0.45098
445626.29460152;5696558.45229919;471.52864983;36494.000000;1.000000;1.000000;1.000000;1.000000;0.042725;-0.042725;0.042725;1.000000;0.568627;0.560784;0.505882
445626.00750168;5696558.41329964;471.54085018;35723.000000;1.000000;1.000000;1.000000;1.000000;-0.083300;0.083300;-0.083300;1.000000;0.54902;0.556863;0.498039
445626.04540070;5696558.41689880;471.53795006;31611.000000;1.000000;1.000000;1.000000;1.000000;-0.086899;0.086899;-0.086899;1.000000;0.482353;0.498039;0.431373
445626.01140221;5696558.32889946;471.53764965;40606.000000;1.000000;1.000000;1.000000;1.000000;0.001101;-0.001101;0.001101;1.000000;0.635294;0.631373;0.533333
445626.17960175;5696558.52369888;471.52895023;33410.000000;1.000000;1.000000;1.000000;1.000000;-0.072275;0.072275;-0.072275;1.000000;0.517647;0.517647;0.47451
445626.17650230;5696558.41199883;471.52285006;26471.000000;1.000000;1.000000;1.000000;1.000000;-0.075375;0.075375;-0.075375;1.000000;0.407843;0.415686;0.34902
445626.21510132;5696558.37570007;471.52414991;30069.000000;1.000000;1.000000;1.000000;1.000000;-0.036776;0.036776;-0.036776;1.000000;0.466667;0.470588;0.396078
445626.15180214;5696558.32539948;471.52764990;35723.000000;1.000000;1.000000;1.000000;1.000000;0.005882;-0.005882;0.005882;1.000000;0.54902;0.556863;0.486275
445626.21640213;5696558.33819969;471.52145006;33924.000000;1.000000;1.000000;1.000000;1.000000;-0.009224;0.009224;-0.009224;1.000000;0.52549;0.52549;0.454902
445626.34820183;5696558.54789932;471.52285006;36494.000000;1.000000;1.000000;1.000000;1.000000;0.096325;-0.096325;0.096325;1.000000;0.568627;0.564706;0.509804
445626.15290077;5696558.28789909;471.52955009;39064.000000;1.000000;1.000000;1.000000;1.000000;0.042369;-0.042369;0.042369;1.000000;0.607843;0.603922;0.533333
445626.15500076;5696558.48399933;471.52734997;33410.000000;1.000000;1.000000;1.000000;1.000000;-0.096876;0.096876;-0.096876;1.000000;0.521569;0.517647;0.470588
445626.04800232;5696558.36769875;471.53274967;18761.000000;1.000000;1.000000;1.000000;1.000000;-0.037699;0.037699;-0.037699;1.000000;0.294118;0.301961;0.184314
445626.04860123;5696558.52639969;471.53704979;28527.000000;1.000000;1.000000;1.000000;1.000000;-0.196400;0.196400;-0.196400;1.000000;0.447059;0.443137;0.368627
445626.25390060;5696558.54479797;471.53254988;25700.000000;1.000000;1.000000;1.000000;1.000000;0.002024;-0.002024;0.002024;1.000000;0.403922;0.4;0.34902
445626.10740097;5696558.50009926;471.52775003;21588.000000;1.000000;1.000000;1.000000;1.000000;-0.144476;0.144476;-0.144476;1.000000;0.341176;0.337255;0.282353
445626.18930061;5696558.55089958;471.52734997;26471.000000;1.000000;1.000000;1.000000;1.000000;-0.062576;0.062576;-0.062576;1.000000;0.411765;0.411765;0.368627
445626.23150070;5696558.40439804;471.53214981;46260.000000;1.000000;1.000000;1.000000;1.000000;-0.020376;0.020376;-0.020376;1.000000;0.713725;0.713725;0.658824
445626.01300247;5696558.31949814;471.53525021;42148.000000;1.000000;1.000000;1.000000;1.000000;0.010502;-0.010502;0.010502;1.000000;0.658824;0.654902;0.560784
445626.01560219;5696558.44999893;471.54164984;28270.000000;1.000000;1.000000;1.000000;1.000000;-0.119999;0.119999;-0.119999;1.000000;0.431373;0.439216;0.392157
445626.01700218;5696558.41479881;471.54124977;37008.000000;1.000000;1.000000;1.000000;1.000000;-0.084799;0.084799;-0.084799;1.000000;0.568627;0.576471;0.513725
445625.98150070;5696558.41109856;471.54194977;23644.000000;1.000000;1.000000;1.000000;1.000000;-0.081099;0.081099;-0.081099;1.000000;0.364706;0.372549;0.313725
445626.02060135;5696558.37710007;471.53865005;30840.000000;1.000000;1.000000;1.000000;1.000000;-0.047100;0.047100;-0.047100;1.000000;0.478431;0.486275;0.392157
445626.09330185;5696558.37969978;471.53735020;41377.000000;1.000000;1.000000;1.000000;1.000000;-0.049754;0.049754;-0.049754;1.000000;0.639216;0.65098;0.533333
445626.16050156;5696558.54189880;471.52364971;32896.000000;1.000000;1.000000;1.000000;1.000000;-0.091375;0.091375;-0.091375;1.000000;0.509804;0.509804;0.466667
445626.19040115;5696558.51339920;471.52934982;40606.000000;1.000000;1.000000;1.000000;1.000000;-0.061476;0.061476;-0.061476;1.000000;0.627451;0.623529;0.584314
445626.26770218;5696558.44299896;471.53424980;43690.000000;1.000000;1.000000;1.000000;1.000000;0.015825;-0.015825;0.015825;1.000000;0.678431;0.67451;0.623529
445626.12260063;5696558.36310013;471.52915003;34181.000000;1.000000;1.000000;1.000000;1.000000;-0.033375;0.033375;-0.033375;1.000000;0.529412;0.541176;0.411765
445625.99460228;5696558.47749908;471.54565002;20303.000000;1.000000;1.000000;1.000000;1.000000;-0.147524;0.147524;-0.147524;1.000000;0.317647;0.317647;0.262745
445626.14630135;5696558.46609886;471.52675011;38036.000000;1.000000;1.000000;1.000000;1.000000;-0.105576;0.105576;-0.105576;1.000000;0.588235;0.588235;0.541176
445626.08110245;5696558.24779900;471.53515007;41891.000000;1.000000;1.000000;1.000000;1.000000;0.082381;-0.082381;0.082381;1.000000;0.643137;0.65098;0.596078
445626.20750244;5696558.32029922;471.52544977;39321.000000;1.000000;1.000000;1.000000;1.000000;0.009701;-0.009701;0.009701;1.000000;0.615686;0.607843;0.541176
445626.20860107;5696558.28049858;471.52264978;33667.000000;1.000000;1.000000;1.000000;1.000000;0.049501;-0.049501;0.049501;1.000000;0.521569;0.521569;0.466667
445626.17340096;5696558.27909859;471.52344992;34438.000000;1.000000;1.000000;1.000000;1.000000;0.050901;-0.050901;0.050901;1.000000;0.541176;0.533333;0.470588
445626.47100075;5696558.25860031;471.51795008;36751.000000;1.000000;1.000000;1.000000;1.000000;0.117546;-0.117546;0.117546;1.000000;0.576471;0.564706;0.505882
445626.19100197;5696558.49459847;471.52915003;42405.000000;1.000000;1.000000;1.000000;1.000000;-0.060875;0.060875;-0.060875;1.000000;0.654902;0.65098;0.611765
445626.23090179;5696558.42309959;471.53235008;40863.000000;1.000000;1.000000;1.000000;1.000000;-0.020975;0.020975;-0.020975;1.000000;0.631373;0.631373;0.576471
445626.26520164;5696558.51569946;471.53274967;36751.000000;1.000000;1.000000;1.000000;1.000000;0.013325;-0.013325;0.013325;1.000000;0.572549;0.568627;0.521569
445626.05100067;5696558.32309921;471.53004982;25957.000000;1.000000;1.000000;1.000000;1.000000;0.006901;-0.006901;0.006901;1.000000;0.411765;0.411765;0.290196
445626.22230156;5696558.43089874;471.53204967;37008.000000;1.000000;1.000000;1.000000;1.000000;-0.029575;0.029575;-0.029575;1.000000;0.576471;0.572549;0.521569
445626.03800209;5696558.38719948;471.53484966;35209.000000;1.000000;1.000000;1.000000;1.000000;-0.057199;0.057199;-0.057199;1.000000;0.545098;0.552941;0.462745
445626.44630249;5696558.40309914;471.53484966;40349.000000;1.000000;1.000000;1.000000;1.000000;-0.138871;0.138871;-0.138871;1.000000;0.619608;0.623529;0.588235
445626.44780167;5696558.36799820;471.53224995;46260.000000;1.000000;1.000000;1.000000;1.000000;-0.122612;0.122612;-0.122612;1.000000;0.709804;0.709804;0.67451
445626.06060226;5696558.48089798;471.53935005;27756.000000;1.000000;1.000000;1.000000;1.000000;-0.150898;0.150898;-0.150898;1.000000;0.423529;0.435294;0.372549
445626.06400116;5696558.44309814;471.54134991;49344.000000;1.000000;1.000000;1.000000;1.000000;-0.113098;0.113098;-0.113098;1.000000;0.74902;0.764706;0.709804
445626.02910240;5696558.36699875;471.53655006;22102.000000;1.000000;1.000000;1.000000;1.000000;-0.037217;0.037217;-0.037217;1.000000;0.352941;0.352941;0.235294
445626.33860214;5696558.52069862;471.52444984;37265.000000;1.000000;1.000000;1.000000;1.000000;0.086725;-0.086725;0.086725;1.000000;0.584314;0.572549;0.513725
445626.08940132;5696558.23539932;471.53305008;36751.000000;1.000000;1.000000;1.000000;1.000000;0.094805;-0.094805;0.094805;1.000000;0.564706;0.572549;0.521569
445626.15680130;5696558.40209969;471.52414991;27242.000000;1.000000;1.000000;1.000000;1.000000;-0.072112;0.072112;-0.072112;1.000000;0.415686;0.435294;0.341176
445625.97340210;5696558.35549934;471.55485012;29555.000000;1.000000;1.000000;1.000000;1.000000;-0.025499;0.025499;-0.025499;1.000000;0.454902;0.462745;0.384314
445626.16030128;5696558.36439903;471.52384998;30069.000000;1.000000;1.000000;1.000000;1.000000;-0.034399;0.034399;-0.034399;1.000000;0.458824;0.47451;0.380392
445626.19550140;5696558.36579903;471.52314999;21845.000000;1.000000;1.000000;1.000000;1.000000;-0.035799;0.035799;-0.035799;1.000000;0.341176;0.341176;0.270588
445625.97710236;5696558.24539955;471.55604984;53456.000000;1.000000;1.000000;1.000000;1.000000;0.084600;-0.084600;0.084600;1.000000;0.811765;0.823529;0.784314
445626.12630089;5696558.25079926;471.52325012;51400.000000;1.000000;1.000000;1.000000;1.000000;0.079203;-0.079203;0.079203;1.000000;0.8;0.792157;0.733333
445626.32050140;5696558.52709969;471.52364971;25957.000000;1.000000;1.000000;1.000000;1.000000;0.068624;-0.068624;0.068624;1.000000;0.411765;0.403922;0.341176
445626.34690102;5696558.51059921;471.52465012;38807.000000;1.000000;1.000000;1.000000;1.000000;0.095024;-0.095024;0.095024;1.000000;0.607843;0.6;0.541176
445626.57110222;5696558.52199944;471.55594971;47031.000000;1.000000;1.000000;1.000000;1.000000;-0.006725;0.006725;-0.006725;1.000000;0.72549;0.721569;0.686275
445626.16870125;5696558.35429962;471.52414991;39578.000000;1.000000;1.000000;1.000000;1.000000;-0.024300;0.024300;-0.024300;1.000000;0.607843;0.615686;0.545098
445626.20660217;5696558.35779961;471.52115013;37522.000000;1.000000;1.000000;1.000000;1.000000;-0.027800;0.027800;-0.027800;1.000000;0.584314;0.580392;0.509804
445626.13500221;5696558.24299820;471.52124979;32125.000000;1.000000;1.000000;1.000000;1.000000;0.087002;-0.087002;0.087002;1.000000;0.501961;0.498039;0.439216
445626.15110214;5696558.56839951;471.52815010;42148.000000;1.000000;1.000000;1.000000;1.000000;-0.100775;0.100775;-0.100775;1.000000;0.643137;0.65098;0.615686
445626.18870171;5696558.56959923;471.52755024;37522.000000;1.000000;1.000000;1.000000;1.000000;-0.063175;0.063175;-0.063175;1.000000;0.580392;0.580392;0.541176
445626.15350159;5696558.49349983;471.52745010;30583.000000;1.000000;1.000000;1.000000;1.000000;-0.098375;0.098375;-0.098375;1.000000;0.478431;0.47451;0.427451
445626.45030220;5696558.54299934;471.52974989;30326.000000;1.000000;1.000000;1.000000;1.000000;0.114075;-0.114075;0.114075;1.000000;0.466667;0.470588;0.415686
445626.17520149;5696558.44719894;471.52084972;34438.000000;1.000000;1.000000;1.000000;1.000000;-0.076675;0.076675;-0.076675;1.000000;0.533333;0.533333;0.486275
445626.20400246;5696558.43269928;471.52664997;42662.000000;1.000000;1.000000;1.000000;1.000000;-0.047874;0.047874;-0.047874;1.000000;0.654902;0.658824;0.607843
445626.16650208;5696558.42929848;471.52024986;36751.000000;1.000000;1.000000;1.000000;1.000000;-0.085375;0.085375;-0.085375;1.000000;0.568627;0.572549;0.505882
445626.50830086;5696558.49979980;471.55515005;42148.000000;1.000000;1.000000;1.000000;1.000000;0.056076;-0.056076;0.056076;1.000000;0.65098;0.647059;0.611765
445626.24400146;5696558.35899933;471.52294971;33924.000000;1.000000;1.000000;1.000000;1.000000;-0.007875;0.007875;-0.007875;1.000000;0.529412;0.52549;0.466667
445626.24500092;5696558.31919868;471.52244999;36751.000000;1.000000;1.000000;1.000000;1.000000;0.011243;-0.011243;0.011243;1.000000;0.564706;0.568627;0.513725
445626.19930084;5696558.30929955;471.52965023;43176.000000;1.000000;1.000000;1.000000;1.000000;0.020700;-0.020700;0.020700;1.000000;0.670588;0.666667;0.611765
445626.02690132;5696558.39519890;471.53914978;31354.000000;1.000000;1.000000;1.000000;1.000000;-0.065307;0.065307;-0.065307;1.000000;0.482353;0.490196;0.415686
445626.31180199;5696558.50919922;471.52304985;34438.000000;1.000000;1.000000;1.000000;1.000000;0.059925;-0.059925;0.059925;1.000000;0.537255;0.529412;0.478431
445626.16510208;5696558.46669968;471.52524998;37265.000000;1.000000;1.000000;1.000000;1.000000;-0.086775;0.086775;-0.086775;1.000000;0.580392;0.576471;0.529412
445626.13230141;5696558.39029892;471.52524998;22873.000000;1.000000;1.000000;1.000000;1.000000;-0.060299;0.060299;-0.060299;1.000000;0.34902;0.372549;0.231373
445626.54810150;5696558.41699799;471.53735020;32896.000000;1.000000;1.000000;1.000000;1.000000;0.074441;-0.074441;0.074441;1.000000;0.509804;0.505882;0.466667
445625.99400146;5696558.31880005;471.54145004;38036.000000;1.000000;1.000000;1.000000;1.000000;0.011395;-0.011395;0.011395;1.000000;0.592157;0.592157;0.509804
445626.42940147;5696558.36519821;471.51975014;36494.000000;1.000000;1.000000;1.000000;1.000000;-0.139489;0.139489;-0.139489;1.000000;0.560784;0.560784;0.52549
445626.51380165;5696558.37799843;471.54234983;24672.000000;1.000000;1.000000;1.000000;1.000000;-0.069726;0.069726;-0.069726;1.000000;0.384314;0.380392;0.34902
445626.07170113;5696558.24859818;471.53704979;40863.000000;1.000000;1.000000;1.000000;1.000000;0.081402;-0.081402;0.081402;1.000000;0.623529;0.635294;0.580392
445626.25670250;5696558.26679810;471.51774981;43690.000000;1.000000;1.000000;1.000000;1.000000;0.063386;-0.063386;0.063386;1.000000;0.678431;0.670588;0.619608
445626.42330177;5696558.40299805;471.52685024;37522.000000;1.000000;1.000000;1.000000;1.000000;-0.158842;0.158842;-0.158842;1.000000;0.580392;0.576471;0.533333
445626.47920235;5696558.27409943;471.52325012;55255.000000;1.000000;1.000000;1.000000;1.000000;0.101880;-0.101880;0.101880;1.000000;0.85098;0.85098;0.807843
445626.52410133;5696558.35849960;471.53324987;38036.000000;1.000000;1.000000;1.000000;1.000000;-0.049339;0.049339;-0.049339;1.000000;0.596078;0.580392;0.541176
445626.19180115;5696558.47589882;471.52425005;36494.000000;1.000000;1.000000;1.000000;1.000000;-0.060076;0.060076;-0.060076;1.000000;0.564706;0.560784;0.521569
445626.34220131;5696558.48309906;471.52185013;34952.000000;1.000000;1.000000;1.000000;1.000000;0.090324;-0.090324;0.090324;1.000000;0.54902;0.537255;0.470588
445626.19320114;5696558.44079979;471.52395012;28270.000000;1.000000;1.000000;1.000000;1.000000;-0.058676;0.058676;-0.058676;1.000000;0.439216;0.439216;0.396078
445626.50770195;5696558.32979973;471.52514984;17219.000000;1.000000;1.000000;1.000000;1.000000;0.056675;-0.056675;0.056675;1.000000;0.278431;0.262745;0.227451
445626.50820168;5696558.25749977;471.51965000;49087.000000;1.000000;1.000000;1.000000;1.000000;0.091717;-0.091717;0.091717;1.000000;0.756863;0.752941;0.713725
445626.19420250;5696558.40329941;471.52584984;38036.000000;1.000000;1.000000;1.000000;1.000000;-0.057674;0.057674;-0.057674;1.000000;0.584314;0.592157;0.537255
445626.31050117;5696558.54669960;471.52584984;39578.000000;1.000000;1.000000;1.000000;1.000000;0.058624;-0.058624;0.058624;1.000000;0.615686;0.607843;0.556863
445626.16750153;5696558.39179810;471.52444984;28784.000000;1.000000;1.000000;1.000000;1.000000;-0.061798;0.061798;-0.061798;1.000000;0.443137;0.454902;0.368627
445626.06720169;5696558.54579933;471.52874996;27242.000000;1.000000;1.000000;1.000000;1.000000;-0.184675;0.184675;-0.184675;1.000000;0.423529;0.423529;0.380392
445626.23660095;5696558.32929810;471.52224972;27499.000000;1.000000;1.000000;1.000000;1.000000;0.000702;-0.000702;0.000702;1.000000;0.431373;0.427451;0.364706
445626.56860168;5696558.38029869;471.52384998;31611.000000;1.000000;1.000000;1.000000;1.000000;-0.050299;0.050299;-0.050299;1.000000;0.494118;0.486275;0.443137
445626.35080154;5696558.47519882;471.52215006;31611.000000;1.000000;1.000000;1.000000;1.000000;0.098925;-0.098925;0.098925;1.000000;0.498039;0.490196;0.423529
445626.24640091;5696558.28399857;471.52215006;50629.000000;1.000000;1.000000;1.000000;1.000000;0.046223;-0.046223;0.046223;1.000000;0.780392;0.780392;0.737255
445626.53270157;5696558.34399994;471.51944973;39835.000000;1.000000;1.000000;1.000000;1.000000;-0.034631;0.034631;-0.034631;1.000000;0.627451;0.611765;0.568627
445626.31300171;5696558.47169884;471.52274992;40863.000000;1.000000;1.000000;1.000000;1.000000;0.061125;-0.061125;0.061125;1.000000;0.639216;0.631373;0.572549
445626.46220215;5696558.26639946;471.52234985;44718.000000;1.000000;1.000000;1.000000;1.000000;0.120352;-0.120352;0.120352;1.000000;0.694118;0.686275;0.631373
445626.31450089;5696558.43659981;471.52005007;29298.000000;1.000000;1.000000;1.000000;1.000000;0.062624;-0.062624;0.062624;1.000000;0.458824;0.45098;0.396078
445626.06740196;5696558.57379921;471.52915003;34181.000000;1.000000;1.000000;1.000000;1.000000;-0.184475;0.184475;-0.184475;1.000000;0.52549;0.529412;0.490196
445626.10380180;5696558.53779800;471.52804996;50115.000000;1.000000;1.000000;1.000000;1.000000;-0.148075;0.148075;-0.148075;1.000000;0.772549;0.772549;0.729412
445626.28120239;5696558.35779961;471.52454998;43690.000000;1.000000;1.000000;1.000000;1.000000;0.029325;-0.029325;0.029325;1.000000;0.670588;0.67451;0.631373
445626.10870178;5696558.46489914;471.52965023;34181.000000;1.000000;1.000000;1.000000;1.000000;-0.134899;0.134899;-0.134899;1.000000;0.52549;0.529412;0.470588
445626.45270164;5696558.29279907;471.52685024;34695.000000;1.000000;1.000000;1.000000;1.000000;0.117708;-0.117708;0.117708;1.000000;0.537255;0.533333;0.490196
445626.14190109;5696558.56929977;471.52775003;41120.000000;1.000000;1.000000;1.000000;1.000000;-0.109976;0.109976;-0.109976;1.000000;0.631373;0.635294;0.603922
445626.17920120;5696558.56819923;471.52714970;40349.000000;1.000000;1.000000;1.000000;1.000000;-0.072676;0.072676;-0.072676;1.000000;0.619608;0.619608;0.584314
445625.89460190;5696557.66189964;471.71315004;26985.000000;1.000000;1.000000;1.000000;1.000000;-0.168110;0.168110;-0.168110;1.000000;0.443137;0.411765;0.352941
445625.63940247;5696557.89309891;471.73465015;6939.000000;1.000000;1.000000;1.000000;1.000000;-0.174974;0.174974;-0.174974;1.000000;0.101961;0.109804;0.101961
445625.77900131;5696557.66659935;471.79874994;32125.000000;1.000000;1.000000;1.000000;1.000000;-0.167186;0.167186;-0.167186;1.000000;0.513725;0.494118;0.435294
445625.67230232;5696558.01629837;471.72594978;514.000000;1.000000;1.000000;1.000000;1.000000;-0.142075;0.142075;-0.142075;1.000000;0.0196078;0.00392157;0.00392157
445625.86010178;5696557.75350006;471.73595001;44461.000000;1.000000;1.000000;1.000000;1.000000;-0.076500;0.076500;-0.076500;1.000000;0.682353;0.686275;0.643137
445625.84280212;5696557.68669899;471.77395012;33410.000000;1.000000;1.000000;1.000000;1.000000;-0.143301;0.143301;-0.143301;1.000000;0.517647;0.517647;0.47451
445625.83300217;5696557.74409874;471.74624969;2570.000000;1.000000;1.000000;1.000000;1.000000;-0.085901;0.085901;-0.085901;1.000000;0.0392157;0.0431373;0.027451
445625.63080223;5696557.90089996;471.73434975;9252.000000;1.000000;1.000000;1.000000;1.000000;-0.183575;0.183575;-0.183575;1.000000;0.133333;0.14902;0.141176
445625.71650131;5696557.86049850;471.71904995;3855.000000;1.000000;1.000000;1.000000;1.000000;-0.097876;0.097876;-0.097876;1.000000;0.0588235;0.0627451;0.0588235
445625.80670174;5696557.68509872;471.79325010;44718.000000;1.000000;1.000000;1.000000;1.000000;-0.145104;0.145104;-0.145104;1.000000;0.690196;0.690196;0.647059
445625.65600212;5696557.76479919;471.77574970;7710.000000;1.000000;1.000000;1.000000;1.000000;-0.171271;0.171271;-0.171271;1.000000;0.121569;0.121569;0.109804
445625.78680237;5696557.73409851;471.76494982;9252.000000;1.000000;1.000000;1.000000;1.000000;-0.099787;0.099787;-0.099787;1.000000;0.141176;0.145098;0.133333
445625.82430084;5696557.64159973;471.77955009;23130.000000;1.000000;1.000000;1.000000;1.000000;-0.188400;0.188400;-0.188400;1.000000;0.376471;0.356863;0.298039
445625.73270233;5696557.87789925;471.70604994;5911.000000;1.000000;1.000000;1.000000;1.000000;-0.081675;0.081675;-0.081675;1.000000;0.0901961;0.0941176;0.0941176
445625.82630165;5696557.72819908;471.75974991;11051.000000;1.000000;1.000000;1.000000;1.000000;-0.101801;0.101801;-0.101801;1.000000;0.160784;0.176471;0.160784
445625.67250069;5696557.76560028;471.77414991;7710.000000;1.000000;1.000000;1.000000;1.000000;-0.155808;0.155808;-0.155808;1.000000;0.117647;0.121569;0.117647
445625.84560211;5696557.63299950;471.75484993;25957.000000;1.000000;1.000000;1.000000;1.000000;-0.197001;0.197001;-0.197001;1.000000;0.427451;0.396078;0.333333
445625.82680138;5696557.66939934;471.78235008;50629.000000;1.000000;1.000000;1.000000;1.000000;-0.160601;0.160601;-0.160601;1.000000;0.788235;0.780392;0.721569
445625.68440063;5696557.93379982;471.70214989;16191.000000;1.000000;1.000000;1.000000;1.000000;-0.129976;0.129976;-0.129976;1.000000;0.247059;0.25098;0.247059
445625.89560135;5696557.82069977;471.70804979;18247.000000;1.000000;1.000000;1.000000;1.000000;-0.009335;0.009335;-0.009335;1.000000;0.290196;0.286275;0.223529
445625.87840088;5696557.74489983;471.72734978;35723.000000;1.000000;1.000000;1.000000;1.000000;-0.085114;0.085114;-0.085114;1.000000;0.54902;0.552941;0.513725
445625.82590111;5696557.66009911;471.78214981;42662.000000;1.000000;1.000000;1.000000;1.000000;-0.169901;0.169901;-0.169901;1.000000;0.666667;0.654902;0.596078
445625.63210114;5696557.82789810;471.76144983;12850.000000;1.000000;1.000000;1.000000;1.000000;-0.182288;0.182288;-0.182288;1.000000;0.196078;0.203922;0.180392
445625.67320068;5696557.79369934;471.76524975;12336.000000;1.000000;1.000000;1.000000;1.000000;-0.145769;0.145769;-0.145769;1.000000;0.184314;0.192157;0.180392
445625.89340218;5696557.69940002;471.71344997;37779.000000;1.000000;1.000000;1.000000;1.000000;-0.130634;0.130634;-0.130634;1.000000;0.580392;0.584314;0.552941
445625.85770233;5696557.80049904;471.72935011;26728.000000;1.000000;1.000000;1.000000;1.000000;-0.029501;0.029501;-0.029501;1.000000;0.411765;0.419608;0.341176
445625.65460213;5696557.77429970;471.77344992;18504.000000;1.000000;1.000000;1.000000;1.000000;-0.169206;0.169206;-0.169206;1.000000;0.282353;0.286275;0.27451
445625.84050186;5696557.77159889;471.73994972;13364.000000;1.000000;1.000000;1.000000;1.000000;-0.058401;0.058401;-0.058401;1.000000;0.207843;0.211765;0.160784
445625.71990211;5696557.74719818;471.77374985;13621.000000;1.000000;1.000000;1.000000;1.000000;-0.125625;0.125625;-0.125625;1.000000;0.2;0.215686;0.211765
445625.86730202;5696557.75519951;471.73395016;41377.000000;1.000000;1.000000;1.000000;1.000000;-0.074800;0.074800;-0.074800;1.000000;0.635294;0.639216;0.592157
445625.68690117;5696558.00839813;471.69614985;2056.000000;1.000000;1.000000;1.000000;1.000000;-0.127476;0.127476;-0.127476;1.000000;0.0352941;0.0313725;0.0313725
445625.73260124;5696557.89669998;471.69694998;5654.000000;1.000000;1.000000;1.000000;1.000000;-0.081776;0.081776;-0.081776;1.000000;0.0862745;0.0901961;0.0901961
445625.67600067;5696557.69009979;471.79904987;35209.000000;1.000000;1.000000;1.000000;1.000000;-0.196774;0.196774;-0.196774;1.000000;0.541176;0.545098;0.505882
445625.75960167;5696557.68469818;471.80044987;7196.000000;1.000000;1.000000;1.000000;1.000000;-0.155283;0.155283;-0.155283;1.000000;0.121569;0.113725;0.0784314
445625.88660248;5696557.78380020;471.72814991;25957.000000;1.000000;1.000000;1.000000;1.000000;-0.047212;0.047212;-0.047212;1.000000;0.411765;0.407843;0.317647
445625.62570198;5696557.78869827;471.77005007;11051.000000;1.000000;1.000000;1.000000;1.000000;-0.193143;0.193143;-0.193143;1.000000;0.168627;0.176471;0.14902
445625.72610100;5696557.84079941;471.72394993;5140.000000;1.000000;1.000000;1.000000;1.000000;-0.088276;0.088276;-0.088276;1.000000;0.0745098;0.0823529;0.0705882
445625.82400139;5696557.71409805;471.78044989;19275.000000;1.000000;1.000000;1.000000;1.000000;-0.115902;0.115902;-0.115902;1.000000;0.290196;0.301961;0.278431
445625.71510132;5696557.84879883;471.72585012;2570.000000;1.000000;1.000000;1.000000;1.000000;-0.099276;0.099276;-0.099276;1.000000;0.0392157;0.0431373;0.0392157
445625.74830063;5696557.76819809;471.75664999;6939.000000;1.000000;1.000000;1.000000;1.000000;-0.090474;0.090474;-0.090474;1.000000;0.101961;0.109804;0.101961
445625.68680199;5696557.68209847;471.80174973;34695.000000;1.000000;1.000000;1.000000;1.000000;-0.195321;0.195321;-0.195321;1.000000;0.537255;0.537255;0.498039
445625.63120087;5696557.95909889;471.74204971;0.000000;1.000000;1.000000;1.000000;1.000000;-0.183176;0.183176;-0.183176;1.000000;0.00392157;0.00392157;0.00392157
445625.75400169;5696557.77709969;471.75234987;4626.000000;1.000000;1.000000;1.000000;1.000000;-0.080272;0.080272;-0.080272;1.000000;0.0705882;0.0745098;0.0666667
445625.71830185;5696557.81329926;471.73724987;6168.000000;1.000000;1.000000;1.000000;1.000000;-0.097516;0.097516;-0.097516;1.000000;0.0901961;0.0980392;0.0862745
445625.75110062;5696557.69249924;471.79785015;5654.000000;1.000000;1.000000;1.000000;1.000000;-0.151362;0.151362;-0.151362;1.000000;0.0980392;0.0901961;0.0627451
445625.80080231;5696557.84309967;471.73194983;7453.000000;1.000000;1.000000;1.000000;1.000000;-0.013575;0.013575;-0.013575;1.000000;0.109804;0.121569;0.0901961
445625.71220215;5696557.70080002;471.79614975;35723.000000;1.000000;1.000000;1.000000;1.000000;-0.164719;0.164719;-0.164719;1.000000;0.541176;0.552941;0.52549
445625.67700203;5696557.69940002;471.79684975;40606.000000;1.000000;1.000000;1.000000;1.000000;-0.189547;0.189547;-0.189547;1.000000;0.623529;0.627451;0.592157
445625.79290207;5696557.83449944;471.73385002;9766.000000;1.000000;1.000000;1.000000;1.000000;-0.021475;0.021475;-0.021475;1.000000;0.145098;0.156863;0.12549
445625.64440163;5696557.95849808;471.70534994;4369.000000;1.000000;1.000000;1.000000;1.000000;-0.169975;0.169975;-0.169975;1.000000;0.0666667;0.0705882;0.0627451
445625.89540108;5696557.74589928;471.71414997;43690.000000;1.000000;1.000000;1.000000;1.000000;-0.084107;0.084107;-0.084107;1.000000;0.670588;0.67451;0.627451
445625.68640144;5696557.86779984;471.72714998;5397.000000;1.000000;1.000000;1.000000;1.000000;-0.127975;0.127975;-0.127975;1.000000;0.0823529;0.0862745;0.0784314
445625.63290222;5696558.01549919;471.71715023;4626.000000;1.000000;1.000000;1.000000;1.000000;-0.181475;0.181475;-0.181475;1.000000;0.0705882;0.0784314;0.0313725
445625.62960251;5696557.91049965;471.72734978;9766.000000;1.000000;1.000000;1.000000;1.000000;-0.184774;0.184774;-0.184774;1.000000;0.145098;0.152941;0.145098
445625.83970078;5696557.64979942;471.76634981;21588.000000;1.000000;1.000000;1.000000;1.000000;-0.180201;0.180201;-0.180201;1.000000;0.352941;0.333333;0.270588
445625.72750099;5696557.83129890;471.72625019;13364.000000;1.000000;1.000000;1.000000;1.000000;-0.086876;0.086876;-0.086876;1.000000;0.2;0.207843;0.196078
445625.80890091;5696557.85409935;471.73014977;18761.000000;1.000000;1.000000;1.000000;1.000000;-0.005476;0.005476;-0.005476;1.000000;0.282353;0.294118;0.254902
445625.88830193;5696557.81899841;471.71234991;16448.000000;1.000000;1.000000;1.000000;1.000000;-0.013658;0.013658;-0.013658;1.000000;0.258824;0.258824;0.192157
445625.69210251;5696557.77319916;471.77045013;22359.000000;1.000000;1.000000;1.000000;1.000000;-0.134823;0.134823;-0.134823;1.000000;0.337255;0.34902;0.337255
445625.91030128;5696557.80069931;471.70384981;6425.000000;1.000000;1.000000;1.000000;1.000000;-0.029301;0.029301;-0.029301;1.000000;0.109804;0.105882;0.0431373
445625.83160217;5696557.73250015;471.75304987;10023.000000;1.000000;1.000000;1.000000;1.000000;-0.097500;0.097500;-0.097500;1.000000;0.14902;0.156863;0.145098
445625.76300247;5696557.64699944;471.80244972;24415.000000;1.000000;1.000000;1.000000;1.000000;-0.190075;0.190075;-0.190075;1.000000;0.392157;0.376471;0.305882
445625.72170074;5696557.90709885;471.69885017;4883.000000;1.000000;1.000000;1.000000;1.000000;-0.092676;0.092676;-0.092676;1.000000;0.0705882;0.0784314;0.0745098
445625.80550201;5696557.73239906;471.76345016;4626.000000;1.000000;1.000000;1.000000;1.000000;-0.098004;0.098004;-0.098004;1.000000;0.0666667;0.0745098;0.0666667
445625.68470200;5696557.89389999;471.71565010;4626.000000;1.000000;1.000000;1.000000;1.000000;-0.129675;0.129675;-0.129675;1.000000;0.0705882;0.0745098;0.0745098
445625.64560135;5696557.73509796;471.78894999;2827.000000;1.000000;1.000000;1.000000;1.000000;-0.193627;0.193627;-0.193627;1.000000;0.0470588;0.0470588;0.0313725
445625.70670135;5696557.85899933;471.72555019;4369.000000;1.000000;1.000000;1.000000;1.000000;-0.107676;0.107676;-0.107676;1.000000;0.0666667;0.0705882;0.0666667
445625.90020187;5696557.84819992;471.71554996;15420.000000;1.000000;1.000000;1.000000;1.000000;0.018200;-0.018200;0.018200;1.000000;0.243137;0.243137;0.192157
445625.72310074;5696557.89760025;471.70114996;4369.000000;1.000000;1.000000;1.000000;1.000000;-0.091276;0.091276;-0.091276;1.000000;0.0666667;0.0705882;0.0705882
445625.62460144;5696557.80049904;471.76774981;7967.000000;1.000000;1.000000;1.000000;1.000000;-0.192055;0.192055;-0.192055;1.000000;0.121569;0.129412;0.105882
445625.72620209;5696557.81970032;471.73064997;11822.000000;1.000000;1.000000;1.000000;1.000000;-0.088774;0.088774;-0.088774;1.000000;0.176471;0.184314;0.172549
445625.87880142;5696557.69819839;471.72444965;38807.000000;1.000000;1.000000;1.000000;1.000000;-0.131816;0.131816;-0.131816;1.000000;0.596078;0.6;0.564706
445625.70850189;5696557.81180008;471.74375011;4626.000000;1.000000;1.000000;1.000000;1.000000;-0.107428;0.107428;-0.107428;1.000000;0.0666667;0.0784314;0.0705882
445625.90930183;5696557.84049805;471.70424988;17733.000000;1.000000;1.000000;1.000000;1.000000;0.010498;-0.010498;0.010498;1.000000;0.278431;0.278431;0.231373
445625.84810074;5696557.79899796;471.73355009;18247.000000;1.000000;1.000000;1.000000;1.000000;-0.031101;0.031101;-0.031101;1.000000;0.27451;0.294118;0.211765
445625.78940208;5696557.84419830;471.72914984;4369.000000;1.000000;1.000000;1.000000;1.000000;-0.024975;0.024975;-0.024975;1.000000;0.0627451;0.0784314;0.0470588
445625.77380188;5696557.80589874;471.73495008;7453.000000;1.000000;1.000000;1.000000;1.000000;-0.047193;0.047193;-0.047193;1.000000;0.113725;0.121569;0.0980392
445625.64610107;5696557.93019875;471.71435024;2570.000000;1.000000;1.000000;1.000000;1.000000;-0.168276;0.168276;-0.168276;1.000000;0.0352941;0.0431373;0.0470588
445625.72230156;5696557.93289955;471.68755009;8481.000000;1.000000;1.000000;1.000000;1.000000;-0.092075;0.092075;-0.092075;1.000000;0.12549;0.133333;0.129412
445625.64910133;5696557.85459908;471.75085022;11565.000000;1.000000;1.000000;1.000000;1.000000;-0.165276;0.165276;-0.165276;1.000000;0.172549;0.184314;0.168627
445625.76990135;5696557.69309814;471.79635002;6939.000000;1.000000;1.000000;1.000000;1.000000;-0.143945;0.143945;-0.143945;1.000000;0.117647;0.109804;0.0745098
445625.88530167;5696557.69069870;471.72004988;28013.000000;1.000000;1.000000;1.000000;1.000000;-0.139556;0.139556;-0.139556;1.000000;0.439216;0.431373;0.396078
445625.84730156;5696557.72410019;471.75134995;28270.000000;1.000000;1.000000;1.000000;1.000000;-0.105913;0.105913;-0.105913;1.000000;0.423529;0.439216;0.419608
445625.72900208;5696557.78629883;471.75604965;10280.000000;1.000000;1.000000;1.000000;1.000000;-0.095910;0.095910;-0.095910;1.000000;0.152941;0.164706;0.156863
445625.88410194;5696557.87769897;471.71985008;20560.000000;1.000000;1.000000;1.000000;1.000000;0.048243;-0.048243;0.048243;1.000000;0.32549;0.317647;0.266667
445625.80790146;5696557.88259895;471.70715000;8481.000000;1.000000;1.000000;1.000000;1.000000;-0.006475;0.006475;-0.006475;1.000000;0.129412;0.133333;0.109804
445625.69560249;5696557.88579948;471.71604969;5397.000000;1.000000;1.000000;1.000000;1.000000;-0.118774;0.118774;-0.118774;1.000000;0.0823529;0.0862745;0.0862745
445625.86520203;5696557.82789810;471.72534992;12079.000000;1.000000;1.000000;1.000000;1.000000;-0.002102;0.002102;-0.002102;1.000000;0.196078;0.192157;0.141176
445625.74220093;5696557.85819824;471.71554996;3855.000000;1.000000;1.000000;1.000000;1.000000;-0.072176;0.072176;-0.072176;1.000000;0.054902;0.0627451;0.054902
445625.73740204;5696557.77619942;471.75624992;13107.000000;1.000000;1.000000;1.000000;1.000000;-0.093913;0.093913;-0.093913;1.000000;0.196078;0.207843;0.196078
445625.88500221;5696557.83790024;471.71945002;21588.000000;1.000000;1.000000;1.000000;1.000000;0.011333;-0.011333;0.011333;1.000000;0.341176;0.337255;0.282353
445625.88160141;5696557.89449890;471.70594980;8995.000000;1.000000;1.000000;1.000000;1.000000;0.064672;-0.064672;0.064672;1.000000;0.133333;0.14902;0.113725
445625.63520248;5696557.79009827;471.77045013;15677.000000;1.000000;1.000000;1.000000;1.000000;-0.183564;0.183564;-0.183564;1.000000;0.239216;0.247059;0.219608
445625.61790092;5696557.95609863;471.71805002;3341.000000;1.000000;1.000000;1.000000;1.000000;-0.196476;0.196476;-0.196476;1.000000;0.0470588;0.054902;0.0470588
445625.70060165;5696557.82429894;471.73885014;6168.000000;1.000000;1.000000;1.000000;1.000000;-0.113918;0.113918;-0.113918;1.000000;0.0901961;0.0980392;0.0862745
445625.81080063;5696557.82810028;471.73924973;13621.000000;1.000000;1.000000;1.000000;1.000000;-0.004050;0.004050;-0.004050;1.000000;0.203922;0.219608;0.176471
445625.81520088;5696557.71729858;471.77535011;8995.000000;1.000000;1.000000;1.000000;1.000000;0.112704;-0.112704;0.112704;1.000000;0.129412;0.145098;0.121569
445625.64920242;5696557.89459808;471.72804977;4369.000000;1.000000;1.000000;1.000000;1.000000;-0.165174;0.165174;-0.165174;1.000000;0.0627451;0.0705882;0.0627451
445625.79880150;5696557.64849861;471.79015018;43690.000000;1.000000;1.000000;1.000000;1.000000;-0.182168;0.182168;-0.182168;1.000000;0.686275;0.670588;0.607843
445625.78660210;5696557.71519859;471.78335001;6682.000000;1.000000;1.000000;1.000000;1.000000;-0.118114;0.118114;-0.118114;1.000000;0.101961;0.105882;0.0901961
445625.85810097;5696557.78169830;471.73385002;17219.000000;1.000000;1.000000;1.000000;1.000000;-0.048302;0.048302;-0.048302;1.000000;0.27451;0.27451;0.2
445625.83410080;5696557.90379913;471.68995001;6939.000000;1.000000;1.000000;1.000000;1.000000;0.019724;-0.019724;0.019724;1.000000;0.109804;0.109804;0.105882
445625.84580238;5696557.89289864;471.71834995;4626.000000;1.000000;1.000000;1.000000;1.000000;0.031425;-0.031425;0.031425;1.000000;0.0705882;0.0784314;0.0627451
445625.85260208;5696557.70719917;471.75365021;34181.000000;1.000000;1.000000;1.000000;1.000000;-0.122831;0.122831;-0.122831;1.000000;0.517647;0.529412;0.509804
445625.66460236;5696557.96629913;471.68774988;4626.000000;1.000000;1.000000;1.000000;1.000000;-0.149775;0.149775;-0.149775;1.000000;0.0666667;0.0745098;0.0705882
445625.64630135;5696557.76330002;471.77994968;8224.000000;1.000000;1.000000;1.000000;1.000000;-0.180827;0.180827;-0.180827;1.000000;0.129412;0.129412;0.113725
445625.86660202;5696557.81849869;471.72534992;10280.000000;1.000000;1.000000;1.000000;1.000000;-0.011501;0.011501;-0.011501;1.000000;0.164706;0.164706;0.105882
445625.91010101;5696557.84979828;471.70674994;12850.000000;1.000000;1.000000;1.000000;1.000000;0.019798;-0.019798;0.019798;1.000000;0.2;0.203922;0.156863
445625.84480103;5696557.86469849;471.73425009;25700.000000;1.000000;1.000000;1.000000;1.000000;0.030424;-0.030424;0.030424;1.000000;0.403922;0.396078;0.34902
445625.85070236;5696557.75429924;471.73784973;30840.000000;1.000000;1.000000;1.000000;1.000000;-0.075844;0.075844;-0.075844;1.000000;0.47451;0.478431;0.443137
445625.90650185;5696557.76579865;471.71724989;49601.000000;1.000000;1.000000;1.000000;1.000000;-0.064201;0.064201;-0.064201;1.000000;0.764706;0.764706;0.694118
445625.81510170;5696557.90089996;471.68905022;8224.000000;1.000000;1.000000;1.000000;1.000000;0.000725;-0.000725;0.000725;1.000000;0.121569;0.133333;0.113725
445625.88560112;5696557.64389999;471.71945002;24415.000000;1.000000;1.000000;1.000000;1.000000;-0.186304;0.186304;-0.186304;1.000000;0.407843;0.372549;0.305882
445625.77900131;5696557.71109970;471.78764965;4883.000000;1.000000;1.000000;1.000000;1.000000;-0.124051;0.124051;-0.124051;1.000000;0.0784314;0.0784314;0.0588235
445625.88240250;5696557.73530014;471.72044994;43176.000000;1.000000;1.000000;1.000000;1.000000;-0.094861;0.094861;-0.094861;1.000000;0.658824;0.666667;0.635294
445625.74210175;5696557.87710007;471.70414974;6682.000000;1.000000;1.000000;1.000000;1.000000;-0.072275;0.072275;-0.072275;1.000000;0.0980392;0.105882;0.105882
445625.90100105;5696557.85739906;471.71805002;15677.000000;1.000000;1.000000;1.000000;1.000000;0.027399;-0.027399;0.027399;1.000000;0.243137;0.247059;0.196078
445625.84960182;5696557.67929848;471.76254990;26728.000000;1.000000;1.000000;1.000000;1.000000;-0.150754;0.150754;-0.150754;1.000000;0.419608;0.411765;0.372549
445625.78130157;5696557.63839920;471.79384996;27756.000000;1.000000;1.000000;1.000000;1.000000;-0.194435;0.194435;-0.194435;1.000000;0.439216;0.431373;0.364706
445625.70600136;5696557.83090027;471.73455002;6168.000000;1.000000;1.000000;1.000000;1.000000;-0.108376;0.108376;-0.108376;1.000000;0.0901961;0.0980392;0.0941176
445625.77720078;5696557.75149925;471.75544979;14135.000000;1.000000;1.000000;1.000000;1.000000;-0.086859;0.086859;-0.086859;1.000000;0.215686;0.219608;0.211765
445625.81870087;5696557.83669861;471.73735001;11822.000000;1.000000;1.000000;1.000000;1.000000;0.004324;-0.004324;0.004324;1.000000;0.176471;0.188235;0.14902
445625.78220184;5696557.79799850;471.73994972;5140.000000;1.000000;1.000000;1.000000;1.000000;-0.045380;0.045380;-0.045380;1.000000;0.0784314;0.0862745;0.0588235
445625.63250168;5696557.87489899;471.74574997;18761.000000;1.000000;1.000000;1.000000;1.000000;-0.181875;0.181875;-0.181875;1.000000;0.278431;0.298039;0.27451
445625.86570175;5696557.68989952;471.73775007;31097.000000;1.000000;1.000000;1.000000;1.000000;-0.140100;0.140100;-0.140100;1.000000;0.482353;0.478431;0.45098
445625.86440094;5696557.65029915;471.73724987;22616.000000;1.000000;1.000000;1.000000;1.000000;-0.179701;0.179701;-0.179701;1.000000;0.376471;0.345098;0.278431
445625.71000107;5696557.80459984;471.74834969;4626.000000;1.000000;1.000000;1.000000;1.000000;-0.107422;0.107422;-0.107422;1.000000;0.0666667;0.0784314;0.0705882
445625.71000107;5696557.76449974;471.76884987;18504.000000;1.000000;1.000000;1.000000;1.000000;-0.123226;0.123226;-0.123226;1.000000;0.27451;0.286275;0.286275
445625.66390236;5696557.77339943;471.77384998;15677.000000;1.000000;1.000000;1.000000;1.000000;-0.160768;0.160768;-0.160768;1.000000;0.239216;0.247059;0.231373
445625.62140091;5696557.90180023;471.73624994;9252.000000;1.000000;1.000000;1.000000;1.000000;-0.192976;0.192976;-0.192976;1.000000;0.133333;0.14902;0.137255
445625.76970108;5696557.87219818;471.70295002;3084.000000;1.000000;1.000000;1.000000;1.000000;-0.044676;0.044676;-0.044676;1.000000;0.0431373;0.054902;0.0392157
445625.64230164;5696557.87639816;471.73915007;9252.000000;1.000000;1.000000;1.000000;1.000000;-0.172075;0.172075;-0.172075;1.000000;0.133333;0.152941;0.129412
445625.68390091;5696557.93149956;471.70674994;17476.000000;1.000000;1.000000;1.000000;1.000000;-0.130476;0.130476;-0.130476;1.000000;0.262745;0.270588;0.266667
445625.77510078;5696557.79629906;471.73955013;4369.000000;1.000000;1.000000;1.000000;1.000000;-0.051753;0.051753;-0.051753;1.000000;0.0666667;0.0705882;0.0509804
445625.79230125;5696557.80639847;471.74044992;10023.000000;1.000000;1.000000;1.000000;1.000000;-0.032317;0.032317;-0.032317;1.000000;0.14902;0.160784;0.12549
445625.63670166;5696557.76179894;471.78184988;13621.000000;1.000000;1.000000;1.000000;1.000000;-0.190315;0.190315;-0.190315;1.000000;0.211765;0.211765;0.192157
445625.84100159;5696557.75279816;471.74204971;7710.000000;1.000000;1.000000;1.000000;1.000000;-0.077202;0.077202;-0.077202;1.000000;0.117647;0.121569;0.0980392
445625.71300133;5696557.72899826;471.78484966;21074.000000;1.000000;1.000000;1.000000;1.000000;-0.143103;0.143103;-0.143103;1.000000;0.313725;0.329412;0.317647
445625.76780136;5696557.71449860;471.78484966;6682.000000;1.000000;1.000000;1.000000;1.000000;-0.124539;0.124539;-0.124539;1.000000;0.109804;0.105882;0.0901961
445625.74840172;5696557.73039825;471.77955009;24672.000000;1.000000;1.000000;1.000000;1.000000;-0.119471;0.119471;-0.119471;1.000000;0.372549;0.384314;0.372549
445625.76890190;5696557.70500000;471.79174997;5140.000000;1.000000;1.000000;1.000000;1.000000;-0.133015;0.133015;-0.133015;1.000000;0.0862745;0.0823529;0.0588235
445625.86140068;5696557.69719894;471.74464991;35209.000000;1.000000;1.000000;1.000000;1.000000;-0.132801;0.132801;-0.132801;1.000000;0.537255;0.541176;0.517647
445625.86030205;5696557.65989883;471.74414970;23901.000000;1.000000;1.000000;1.000000;1.000000;-0.170101;0.170101;-0.170101;1.000000;0.392157;0.364706;0.298039
445625.65040215;5696557.98779877;471.73854973;3855.000000;1.000000;1.000000;1.000000;1.000000;-0.163975;0.163975;-0.163975;1.000000;0.054902;0.0627451;0.054902
445625.72770126;5696557.81249817;471.73535015;5140.000000;1.000000;1.000000;1.000000;1.000000;-0.088425;0.088425;-0.088425;1.000000;0.0745098;0.0823529;0.0705882
445625.90520103;5696557.81989868;471.70144989;19275.000000;1.000000;1.000000;1.000000;1.000000;-0.010101;0.010101;-0.010101;1.000000;0.301961;0.305882;0.243137
445625.86960228;5696557.68019875;471.73544981;20817.000000;1.000000;1.000000;1.000000;1.000000;-0.149801;0.149801;-0.149801;1.000000;0.333333;0.321569;0.278431
445625.87090118;5696557.64269836;471.73274996;25700.000000;1.000000;1.000000;1.000000;1.000000;-0.187302;0.187302;-0.187302;1.000000;0.427451;0.392157;0.321569
445625.87970169;5696557.88270004;471.72434999;18504.000000;1.000000;1.000000;1.000000;1.000000;0.052776;-0.052776;0.052776;1.000000;0.294118;0.286275;0.247059
445625.69410141;5696557.95419891;471.68424990;9509.000000;1.000000;1.000000;1.000000;1.000000;-0.120275;0.120275;-0.120275;1.000000;0.141176;0.14902;0.145098
445625.84150131;5696557.78089912;471.73775007;13364.000000;1.000000;1.000000;1.000000;1.000000;-0.049101;0.049101;-0.049101;1.000000;0.207843;0.215686;0.145098
445625.80590065;5696557.88289841;471.70004990;12336.000000;1.000000;1.000000;1.000000;1.000000;-0.008476;0.008476;-0.008476;1.000000;0.188235;0.196078;0.164706
445625.69740112;5696557.83869942;471.73425009;5397.000000;1.000000;1.000000;1.000000;1.000000;-0.116976;0.116976;-0.116976;1.000000;0.0784314;0.0862745;0.0784314
445625.84660156;5696557.80849846;471.73364975;12850.000000;1.000000;1.000000;1.000000;1.000000;-0.021524;0.021524;-0.021524;1.000000;0.192157;0.207843;0.145098
445625.69370087;5696557.93299873;471.70025017;15677.000000;1.000000;1.000000;1.000000;1.000000;-0.120676;0.120676;-0.120676;1.000000;0.235294;0.243137;0.239216
445625.74170120;5696557.91699799;471.69054987;7196.000000;1.000000;1.000000;1.000000;1.000000;-0.072676;0.072676;-0.072676;1.000000;0.105882;0.113725;0.109804
445625.77760132;5696557.67599876;471.79885008;29041.000000;1.000000;1.000000;1.000000;1.000000;-0.158331;0.158331;-0.158331;1.000000;0.462745;0.443137;0.392157
445625.84150131;5696557.69619949;471.77164986;37522.000000;1.000000;1.000000;1.000000;1.000000;-0.133801;0.133801;-0.133801;1.000000;0.572549;0.580392;0.54902
445625.86630066;5696557.67109879;471.73754980;21588.000000;1.000000;1.000000;1.000000;1.000000;-0.158901;0.158901;-0.158901;1.000000;0.345098;0.333333;0.294118
445625.65470131;5696557.75309952;471.78025009;2570.000000;1.000000;1.000000;1.000000;1.000000;-0.177229;0.177229;-0.177229;1.000000;0.0431373;0.0431373;0.0313725
445625.86530121;5696557.63389977;471.73474981;31611.000000;1.000000;1.000000;1.000000;1.000000;-0.196100;0.196100;-0.196100;1.000000;0.513725;0.482353;0.419608
