//X;Y;Z;Intensity;Return Number;Number Of Returns;Scan Direction Flag;Point Source ID;C2M signed distances[-][<0.8];C2M signed distances[<0.4];C2M signed distances[-][<0.2];Stump109;Rf;Gf;Bf
300
445636.96010025;5696587.94479950;471.48574974;26471.000000;1.000000;1.000000;1.000000;1.000000;0.083223;-0.083223;0.083223;1.000000;0.380392;0.443137;0.290196
445636.96140106;5696587.90959938;471.48775007;29555.000000;1.000000;1.000000;1.000000;1.000000;0.080010;-0.080010;0.080010;1.000000;0.415686;0.490196;0.341176
445636.99890335;5696587.91079910;471.48705008;13878.000000;1.000000;1.000000;1.000000;1.000000;0.080799;-0.080799;0.080799;1.000000;0.176471;0.254902;0.0941176
445637.00230225;5696587.87299927;471.48915007;29298.000000;1.000000;1.000000;1.000000;1.000000;0.042999;-0.042999;0.042999;1.000000;0.403922;0.498039;0.317647
445636.96479996;5696587.87179955;471.48974993;15163.000000;1.000000;1.000000;1.000000;1.000000;0.042062;-0.042062;0.042062;1.000000;0.192157;0.278431;0.109804
445636.78690155;5696588.04939850;471.50015022;28013.000000;1.000000;1.000000;1.000000;1.000000;-0.089975;0.089975;-0.089975;1.000000;0.435294;0.439216;0.376471
445636.83749969;5696587.79229935;471.50394966;42919.000000;1.000000;1.000000;1.000000;1.000000;-0.054515;0.054515;-0.054515;1.000000;0.666667;0.658824;0.631373
445636.80220230;5696587.71609886;471.50614979;30326.000000;1.000000;1.000000;1.000000;1.000000;-0.136198;0.136198;-0.136198;1.000000;0.486275;0.466667;0.4
445636.80350311;5696587.67869957;471.50344994;35209.000000;1.000000;1.000000;1.000000;1.000000;-0.168153;0.168153;-0.168153;1.000000;0.556863;0.541176;0.482353
445636.95520218;5696587.68389900;471.46845009;33667.000000;1.000000;1.000000;1.000000;1.000000;-0.146806;0.146806;-0.146806;1.000000;0.513725;0.533333;0.439216
445636.99070175;5696587.68759926;471.46544983;30840.000000;1.000000;1.000000;1.000000;1.000000;-0.142401;0.142401;-0.142401;1.000000;0.443137;0.501961;0.380392
445636.94690140;5696588.05799873;471.49344971;26728.000000;1.000000;1.000000;1.000000;1.000000;0.070024;-0.070024;0.070024;1.000000;0.407843;0.427451;0.321569
445636.98690231;5696587.98419960;471.49204971;43176.000000;1.000000;1.000000;1.000000;1.000000;0.108910;-0.108910;0.108910;1.000000;0.635294;0.694118;0.560784
445636.92020233;5696587.79649933;471.49144985;47031.000000;1.000000;1.000000;1.000000;1.000000;-0.033501;0.033501;-0.033501;1.000000;0.717647;0.72549;0.678431
445636.84970291;5696587.71889885;471.49434998;29555.000000;1.000000;1.000000;1.000000;1.000000;-0.114376;0.114376;-0.114376;1.000000;0.47451;0.454902;0.392157
445636.88850220;5696587.68269928;471.49335005;32382.000000;1.000000;1.000000;1.000000;1.000000;-0.147301;0.147301;-0.147301;1.000000;0.505882;0.501961;0.45098
445637.01820190;5696587.70609863;471.46455004;40606.000000;1.000000;1.000000;1.000000;1.000000;-0.123901;0.123901;-0.123901;1.000000;0.592157;0.658824;0.513725
445636.99770172;5696587.94819839;471.48745014;23901.000000;1.000000;1.000000;1.000000;1.000000;0.106728;-0.106728;0.106728;1.000000;0.337255;0.403922;0.258824
445637.07410248;5696587.91319855;471.48355009;31097.000000;1.000000;1.000000;1.000000;1.000000;0.080448;-0.080448;0.080448;1.000000;0.431373;0.52549;0.345098
445636.69660004;5696588.04569824;471.52395012;18761.000000;1.000000;1.000000;1.000000;1.000000;-0.180277;0.180277;-0.180277;1.000000;0.270588;0.313725;0.215686
445637.02930267;5696588.05979927;471.48554995;36237.000000;1.000000;1.000000;1.000000;1.000000;0.066324;-0.066324;0.066324;1.000000;0.556863;0.568627;0.47451
445637.07540329;5696587.87799843;471.48544981;29298.000000;1.000000;1.000000;1.000000;1.000000;0.047998;-0.047998;0.047998;1.000000;0.411765;0.486275;0.345098
445636.97520264;5696588.03889854;471.50155022;33667.000000;1.000000;1.000000;1.000000;1.000000;0.098326;-0.098326;0.098326;1.000000;0.501961;0.541176;0.427451
445636.85710342;5696587.74629982;471.49265005;33153.000000;1.000000;1.000000;1.000000;1.000000;-0.086004;0.086004;-0.086004;1.000000;0.52549;0.513725;0.431373
445636.73900040;5696587.89919861;471.52414991;38293.000000;1.000000;1.000000;1.000000;1.000000;-0.137877;0.137877;-0.137877;1.000000;0.592157;0.6;0.490196
445636.70760162;5696587.78539856;471.51905014;53713.000000;1.000000;1.000000;1.000000;1.000000;-0.175053;0.175053;-0.175053;1.000000;0.815686;0.827451;0.8
445636.92010315;5696588.01849945;471.48714973;36494.000000;1.000000;1.000000;1.000000;1.000000;0.043226;-0.043226;0.043226;1.000000;0.54902;0.580392;0.466667
445636.88390167;5696587.97989853;471.48504974;40349.000000;1.000000;1.000000;1.000000;1.000000;0.007025;-0.007025;0.007025;1.000000;0.607843;0.639216;0.533333
445636.81080063;5696587.93939980;471.51854994;19275.000000;1.000000;1.000000;1.000000;1.000000;-0.066076;0.066076;-0.066076;1.000000;0.294118;0.301961;0.262745
445637.03640182;5696587.91189964;471.48875000;16962.000000;1.000000;1.000000;1.000000;1.000000;0.081965;0.081965;-0.081965;1.000000;0.219608;0.305882;0.141176
445636.96949966;5696587.79669960;471.48904993;37522.000000;1.000000;1.000000;1.000000;1.000000;-0.033300;0.033300;-0.033300;1.000000;0.568627;0.588235;0.533333
445637.04220016;5696587.79929932;471.48775007;42919.000000;1.000000;1.000000;1.000000;1.000000;-0.032013;0.032013;-0.032013;1.000000;0.647059;0.666667;0.615686
445636.89690216;5696587.71929939;471.48714973;22102.000000;1.000000;1.000000;1.000000;1.000000;-0.110701;0.110701;-0.110701;1.000000;0.345098;0.34902;0.258824
445636.89700134;5696587.67259987;471.49125006;35980.000000;1.000000;1.000000;1.000000;1.000000;-0.157400;0.157400;-0.157400;1.000000;0.556863;0.556863;0.501961
445636.90060242;5696587.63709839;471.49335005;39064.000000;1.000000;1.000000;1.000000;1.000000;-0.192902;0.192902;-0.192902;1.000000;0.607843;0.6;0.564706
445636.73070343;5696588.08459862;471.52364971;51400.000000;1.000000;1.000000;1.000000;1.000000;-0.146173;0.146173;-0.146173;1.000000;0.772549;0.8;0.745098
445636.92490204;5696587.94339951;471.48414995;27756.000000;1.000000;1.000000;1.000000;1.000000;0.048025;-0.048025;0.048025;1.000000;0.396078;0.458824;0.32549
445637.07650192;5696587.83819969;471.48274996;13621.000000;1.000000;1.000000;1.000000;1.000000;0.008200;-0.008200;0.008200;1.000000;0.176471;0.239216;0.12549
445636.73560150;5696588.00939949;471.51825001;10537.000000;1.000000;1.000000;1.000000;1.000000;-0.141275;0.141275;-0.141275;1.000000;0.137255;0.192157;0.0745098
445636.70170029;5696587.89809998;471.52005007;39321.000000;1.000000;1.000000;1.000000;1.000000;-0.175177;0.175177;-0.175177;1.000000;0.596078;0.623529;0.486275
445636.88240250;5696588.01499947;471.48775007;33667.000000;1.000000;1.000000;1.000000;1.000000;0.005526;-0.005526;0.005526;1.000000;0.513725;0.529412;0.431373
445637.06830032;5696588.02589996;471.48224976;10023.000000;1.000000;1.000000;1.000000;1.000000;0.027327;-0.027327;0.027327;1.000000;0.14902;0.172549;0.0705882
445636.96610077;5696587.83439835;471.48705008;32639.000000;1.000000;1.000000;1.000000;1.000000;0.005559;-0.005559;0.005559;1.000000;0.470588;0.533333;0.4
445637.00350006;5696587.83559998;471.48875000;24415.000000;1.000000;1.000000;1.000000;1.000000;0.005600;0.005600;-0.005600;1.000000;0.341176;0.411765;0.254902
445637.03900345;5696587.83929832;471.48805000;19532.000000;1.000000;1.000000;1.000000;1.000000;0.011000;0.011000;-0.011000;1.000000;0.266667;0.337255;0.203922
445637.07980164;5696587.80049904;471.48705008;41634.000000;1.000000;1.000000;1.000000;1.000000;-0.029501;0.029501;-0.029501;1.000000;0.619608;0.654902;0.6
445636.93470200;5696587.64589890;471.48105003;14649.000000;1.000000;1.000000;1.000000;1.000000;-0.184101;0.184101;-0.184101;1.000000;0.227451;0.231373;0.188235
445637.00470169;5696587.79809959;471.48834993;40349.000000;1.000000;1.000000;1.000000;1.000000;-0.031900;0.031900;-0.031900;1.000000;0.607843;0.631373;0.576471
445636.95880325;5696587.98219879;471.48845007;27499.000000;1.000000;1.000000;1.000000;1.000000;0.081926;-0.081926;0.081926;1.000000;0.396078;0.454902;0.313725
445636.92140015;5696587.98109825;471.48444988;30583.000000;1.000000;1.000000;1.000000;1.000000;0.044523;-0.044523;0.044523;1.000000;0.443137;0.498039;0.364706
445637.03640182;5696587.98669823;471.48735001;23387.000000;1.000000;1.000000;1.000000;1.000000;0.059357;-0.059357;0.059357;1.000000;0.329412;0.392157;0.247059
445636.69780167;5696588.00819977;471.52355005;21845.000000;1.000000;1.000000;1.000000;1.000000;-0.179075;0.179075;-0.179075;1.000000;0.309804;0.368627;0.239216
445636.75590332;5696587.93709953;471.53935005;56026.000000;1.000000;1.000000;1.000000;1.000000;-0.120974;0.120974;-0.120974;1.000000;0.854902;0.870588;0.803922
445636.72220047;5696587.86139877;471.50654985;48316.000000;1.000000;1.000000;1.000000;1.000000;-0.154676;0.154676;-0.154676;1.000000;0.729412;0.756863;0.666667
445636.79840286;5696587.82629974;471.50724985;14649.000000;1.000000;1.000000;1.000000;1.000000;-0.078561;0.078561;-0.078561;1.000000;0.231373;0.231373;0.192157
445636.79969986;5696587.78879936;471.50455000;52428.000000;1.000000;1.000000;1.000000;1.000000;-0.087486;0.087486;-0.087486;1.000000;0.803922;0.803922;0.776471
445636.80120285;5696587.75369843;471.50184967;36237.000000;1.000000;1.000000;1.000000;1.000000;-0.107464;0.107464;-0.107464;1.000000;0.572549;0.556863;0.490196
445636.82909973;5696587.97759827;471.50344994;16962.000000;1.000000;1.000000;1.000000;1.000000;-0.047777;0.047777;-0.047777;1.000000;0.254902;0.27451;0.207843
445636.87050064;5696587.86879929;471.49945023;48830.000000;1.000000;1.000000;1.000000;1.000000;-0.006376;0.006376;-0.006376;1.000000;0.737255;0.760784;0.698039
445637.06000336;5696587.98689850;471.48374989;15934.000000;1.000000;1.000000;1.000000;1.000000;0.035828;-0.035828;0.035828;1.000000;0.207843;0.282353;0.133333
445636.80270203;5696587.90269859;471.52005007;56797.000000;1.000000;1.000000;1.000000;1.000000;-0.074175;0.074175;-0.074175;1.000000;0.866667;0.878431;0.823529
445637.06360062;5696587.94929894;471.48115017;20560.000000;1.000000;1.000000;1.000000;1.000000;0.052397;-0.052397;0.052397;1.000000;0.270588;0.364706;0.192157
445637.02580078;5696587.94800003;471.48644974;20817.000000;1.000000;1.000000;1.000000;1.000000;0.081828;-0.081828;0.081828;1.000000;0.282353;0.364706;0.196078
445637.06480225;5696587.91399963;471.48544981;35723.000000;1.000000;1.000000;1.000000;1.000000;0.082640;-0.082640;0.082640;1.000000;0.501961;0.592157;0.415686
445636.92400177;5696587.75889977;471.48654987;39835.000000;1.000000;1.000000;1.000000;1.000000;-0.071100;0.071100;-0.071100;1.000000;0.603922;0.631373;0.517647
445636.95940216;5696587.76039894;471.48115017;40349.000000;1.000000;1.000000;1.000000;1.000000;-0.070333;0.070333;-0.070333;1.000000;0.6;0.643137;0.517647
445636.83889969;5696587.75490006;471.49895002;37008.000000;1.000000;1.000000;1.000000;1.000000;-0.084156;0.084156;-0.084156;1.000000;0.576471;0.572549;0.501961
445636.68589981;5696588.08389862;471.53084995;36494.000000;1.000000;1.000000;1.000000;1.000000;-0.190977;0.190977;-0.190977;1.000000;0.541176;0.576471;0.505882
445636.68720062;5696588.04649933;471.52815010;22873.000000;1.000000;1.000000;1.000000;1.000000;-0.189676;0.189676;-0.189676;1.000000;0.32549;0.380392;0.270588
445636.79650314;5696588.05089958;471.49595024;38293.000000;1.000000;1.000000;1.000000;1.000000;-0.080374;0.080374;-0.080374;1.000000;0.596078;0.592157;0.533333
445636.90950211;5696588.05679901;471.49174978;31868.000000;1.000000;1.000000;1.000000;1.000000;0.032625;-0.032625;0.032625;1.000000;0.498039;0.498039;0.419608
445636.76710327;5696587.71479996;471.50455000;37265.000000;1.000000;1.000000;1.000000;1.000000;-0.159127;0.159127;-0.159127;1.000000;0.6;0.572549;0.494118
445636.86930283;5696587.90619858;471.49984982;27499.000000;1.000000;1.000000;1.000000;1.000000;-0.007574;0.007574;-0.007574;1.000000;0.403922;0.439216;0.388235
445637.06590088;5696587.69009979;471.46184971;22359.000000;1.000000;1.000000;1.000000;1.000000;-0.139900;0.139900;-0.139900;1.000000;0.301961;0.384314;0.235294
445637.06440170;5696587.72749908;471.46925022;41120.000000;1.000000;1.000000;1.000000;1.000000;-0.102501;0.102501;-0.102501;1.000000;0.596078;0.666667;0.505882
445636.76830109;5696587.67729958;471.50414993;45489.000000;1.000000;1.000000;1.000000;1.000000;-0.187366;0.187366;-0.187366;1.000000;0.721569;0.694118;0.623529
445636.83609970;5696587.82749947;471.50435020;14649.000000;1.000000;1.000000;1.000000;1.000000;-0.040854;0.040854;-0.040854;1.000000;0.215686;0.235294;0.188235
445636.90509995;5696587.93339928;471.49004986;27242.000000;1.000000;1.000000;1.000000;1.000000;0.028223;-0.028223;0.028223;1.000000;0.388235;0.447059;0.337255
445636.94400223;5696587.89949997;471.48915007;23130.000000;1.000000;1.000000;1.000000;1.000000;0.067125;-0.067125;0.067125;1.000000;0.313725;0.396078;0.247059
445636.94510086;5696587.86199959;471.49104979;25700.000000;1.000000;1.000000;1.000000;1.000000;0.032507;-0.032507;0.032507;1.000000;0.352941;0.431373;0.290196
445637.02760132;5696587.67959984;471.46005013;11565.000000;1.000000;1.000000;1.000000;1.000000;-0.150400;0.150400;-0.150400;1.000000;0.14902;0.207843;0.105882
445637.02890213;5696587.64219864;471.45725014;32382.000000;1.000000;1.000000;1.000000;1.000000;-0.187801;0.187801;-0.187801;1.000000;0.478431;0.513725;0.435294
445636.91220291;5696587.98189934;471.48404982;33410.000000;1.000000;1.000000;1.000000;1.000000;0.035326;-0.035326;0.035326;1.000000;0.490196;0.541176;0.411765
445636.91560181;5696587.94419868;471.48605015;29812.000000;1.000000;1.000000;1.000000;1.000000;0.038725;-0.038725;0.038725;1.000000;0.431373;0.490196;0.360784
445636.95190247;5696587.90809830;471.48724987;27499.000000;1.000000;1.000000;1.000000;1.000000;0.075026;-0.075026;0.075026;1.000000;0.384314;0.462745;0.313725
445636.99180038;5696587.90909966;471.48675014;17733.000000;1.000000;1.000000;1.000000;1.000000;0.079100;-0.079100;0.079100;1.000000;0.239216;0.313725;0.156863
445636.99310120;5696587.87389954;471.48875000;26471.000000;1.000000;1.000000;1.000000;1.000000;0.043900;-0.043900;0.043900;1.000000;0.356863;0.454902;0.27451
445637.05770309;5696588.06189926;471.48224976;34695.000000;1.000000;1.000000;1.000000;1.000000;0.037924;-0.037924;0.037924;1.000000;0.537255;0.541176;0.478431
445636.72070129;5696587.93569954;471.54005005;46003.000000;1.000000;1.000000;1.000000;1.000000;-0.156176;0.156176;-0.156176;1.000000;0.690196;0.72549;0.615686
445636.76580246;5696587.75219925;471.50724985;22616.000000;1.000000;1.000000;1.000000;1.000000;-0.135612;0.135612;-0.135612;1.000000;0.376471;0.345098;0.282353
445636.99260147;5696587.63139923;471.46254971;11822.000000;1.000000;1.000000;1.000000;1.000000;-0.198601;0.198601;-0.198601;1.000000;0.172549;0.196078;0.14902
445636.89130219;5696588.03749855;471.49305012;38293.000000;1.000000;1.000000;1.000000;1.000000;0.014425;-0.014425;0.014425;1.000000;0.592157;0.6;0.509804
445636.75920303;5696588.08669861;471.51795008;50629.000000;1.000000;1.000000;1.000000;1.000000;-0.117674;0.117674;-0.117674;1.000000;0.764706;0.784314;0.733333
445636.98830231;5696587.94679840;471.48705008;32896.000000;1.000000;1.000000;1.000000;1.000000;0.111425;-0.111425;0.111425;1.000000;0.47451;0.541176;0.392157
445636.92300232;5696587.72169884;471.48145010;37265.000000;1.000000;1.000000;1.000000;1.000000;-0.108301;0.108301;-0.108301;1.000000;0.564706;0.592157;0.470588
445636.72130020;5696588.08539970;471.52554991;47545.000000;1.000000;1.000000;1.000000;1.000000;-0.155577;0.155577;-0.155577;1.000000;0.717647;0.741176;0.690196
445636.72280319;5696588.04799850;471.51814987;17476.000000;1.000000;1.000000;1.000000;1.000000;-0.154074;0.154074;-0.154074;1.000000;0.247059;0.290196;0.196078
445637.02219971;5696588.06040009;471.48754980;37779.000000;1.000000;1.000000;1.000000;1.000000;0.073427;-0.073427;0.073427;1.000000;0.576471;0.596078;0.501961
445636.91069992;5696588.01709946;471.48665001;36494.000000;1.000000;1.000000;1.000000;1.000000;0.033823;-0.033823;0.033823;1.000000;0.54902;0.580392;0.470588
445636.87160309;5696588.05329903;471.49464991;29555.000000;1.000000;1.000000;1.000000;1.000000;-0.005274;0.005274;-0.005274;1.000000;0.466667;0.458824;0.388235
445636.98439987;5696588.05919846;471.49515011;29812.000000;1.000000;1.000000;1.000000;1.000000;0.107523;-0.107523;0.107523;1.000000;0.45098;0.47451;0.364706
445636.94810303;5696588.02049835;471.49305012;35980.000000;1.000000;1.000000;1.000000;1.000000;0.071226;-0.071226;0.071226;1.000000;0.537255;0.576471;0.447059
445636.85710342;5696587.99629982;471.49104979;45489.000000;1.000000;1.000000;1.000000;1.000000;-0.019773;0.019773;-0.019773;1.000000;0.694118;0.709804;0.627451
445636.89820297;5696587.88729866;471.49384977;24158.000000;1.000000;1.000000;1.000000;1.000000;0.021326;-0.021326;0.021326;1.000000;0.345098;0.396078;0.313725
445636.86100204;5696587.86729820;471.50124981;44975.000000;1.000000;1.000000;1.000000;1.000000;-0.015875;0.015875;-0.015875;1.000000;0.67451;0.701961;0.639216
445636.83410080;5696587.68049820;471.50254967;33667.000000;1.000000;1.000000;1.000000;1.000000;-0.155501;0.155501;-0.155501;1.000000;0.52549;0.517647;0.466667
445637.01740082;5696587.72479828;471.46934988;37779.000000;1.000000;1.000000;1.000000;1.000000;-0.105202;0.105202;-0.105202;1.000000;0.54902;0.619608;0.454902
445637.05490311;5696587.72599991;471.46875002;40606.000000;1.000000;1.000000;1.000000;1.000000;-0.104000;0.104000;-0.104000;1.000000;0.588235;0.658824;0.498039
445637.09250076;5696587.72719963;471.46814968;43690.000000;1.000000;1.000000;1.000000;1.000000;-0.102800;0.102800;-0.102800;1.000000;0.643137;0.705882;0.54902
445636.69210251;5696587.89659889;471.52194979;35723.000000;1.000000;1.000000;1.000000;1.000000;-0.184774;0.184774;-0.184774;1.000000;0.537255;0.572549;0.427451
445636.72990234;5696587.90009888;471.52134993;39321.000000;1.000000;1.000000;1.000000;1.000000;-0.146975;0.146975;-0.146975;1.000000;0.607843;0.615686;0.505882
445636.69820221;5696587.78629883;471.52094986;53713.000000;1.000000;1.000000;1.000000;1.000000;-0.183941;0.183941;-0.183941;1.000000;0.815686;0.831373;0.8
445636.87460144;5696587.98069962;471.48465015;47031.000000;1.000000;1.000000;1.000000;1.000000;-0.002275;0.002275;-0.002275;1.000000;0.709804;0.737255;0.639216
445637.02710159;5696587.91279991;471.48834993;15677.000000;1.000000;1.000000;1.000000;1.000000;0.082800;0.082800;-0.082800;1.000000;0.196078;0.290196;0.113725
445637.06580170;5696587.87649925;471.48735001;40863.000000;1.000000;1.000000;1.000000;1.000000;0.046499;-0.046499;0.046499;1.000000;0.588235;0.662745;0.521569
445637.06710251;5696587.83909996;471.48465015;14135.000000;1.000000;1.000000;1.000000;1.000000;0.009100;-0.009100;0.009100;1.000000;0.180392;0.25098;0.129412
445637.03280075;5696587.79779823;471.48724987;43947.000000;1.000000;1.000000;1.000000;1.000000;-0.032202;0.032202;-0.032202;1.000000;0.662745;0.686275;0.639216
445636.88760193;5696587.72019966;471.48675014;20046.000000;1.000000;1.000000;1.000000;1.000000;-0.109800;0.109800;-0.109800;1.000000;0.32549;0.313725;0.235294
445636.92749985;5696587.64649971;471.48535015;16705.000000;1.000000;1.000000;1.000000;1.000000;-0.183500;0.183500;-0.183500;1.000000;0.262745;0.262745;0.223529
445636.89940079;5696587.84979828;471.49354984;41377.000000;1.000000;1.000000;1.000000;1.000000;0.019798;-0.019798;0.019798;1.000000;0.611765;0.654902;0.572549
445636.93729980;5696587.85339935;471.49064972;41377.000000;1.000000;1.000000;1.000000;1.000000;0.023399;-0.023399;0.023399;1.000000;0.6;0.666667;0.545098
445636.90200241;5696587.77719887;471.49274971;54227.000000;1.000000;1.000000;1.000000;1.000000;-0.052801;0.052801;-0.052801;1.000000;0.823529;0.839216;0.776471
445636.87030228;5696587.66329964;471.49464991;34438.000000;1.000000;1.000000;1.000000;1.000000;-0.166830;0.166830;-0.166830;1.000000;0.533333;0.529412;0.494118
445637.05730255;5696587.67219933;471.46124985;32639.000000;1.000000;1.000000;1.000000;1.000000;-0.157801;0.157801;-0.157801;1.000000;0.470588;0.533333;0.415686
445636.80370148;5696587.93999870;471.52285006;22102.000000;1.000000;1.000000;1.000000;1.000000;-0.073175;0.073175;-0.073175;1.000000;0.333333;0.34902;0.309804
445636.72630127;5696588.01029976;471.51784994;12336.000000;1.000000;1.000000;1.000000;1.000000;-0.150576;0.150576;-0.150576;1.000000;0.164706;0.223529;0.0980392
445637.06120117;5696588.02419861;471.48194983;9766.000000;1.000000;1.000000;1.000000;1.000000;0.034426;-0.034426;0.034426;1.000000;0.145098;0.168627;0.0705882
445636.99430283;5696587.83639915;471.48834993;25700.000000;1.000000;1.000000;1.000000;1.000000;0.006399;-0.006399;0.006399;1.000000;0.356863;0.431373;0.278431
445637.03180130;5696587.83759888;471.48764994;17476.000000;1.000000;1.000000;1.000000;1.000000;0.007599;0.007599;-0.007599;1.000000;0.235294;0.305882;0.168627
445637.07050140;5696587.80139931;471.48665001;39064.000000;1.000000;1.000000;1.000000;1.000000;-0.028601;0.028601;-0.028601;1.000000;0.580392;0.615686;0.560784
445636.99559982;5696587.79899986;471.48554995;38293.000000;1.000000;1.000000;1.000000;1.000000;-0.031000;0.031000;-0.031000;1.000000;0.572549;0.603922;0.545098
445636.95080002;5696587.94559868;471.48535015;25443.000000;1.000000;1.000000;1.000000;1.000000;0.073923;-0.073923;0.073923;1.000000;0.364706;0.423529;0.282353
445636.94960220;5696587.98309906;471.48574974;28784.000000;1.000000;1.000000;1.000000;1.000000;0.072725;-0.072725;0.072725;1.000000;0.415686;0.47451;0.329412
445636.76379974;5696588.01149948;471.51954987;19532.000000;1.000000;1.000000;1.000000;1.000000;-0.113077;0.113077;-0.113077;1.000000;0.282353;0.321569;0.235294
445636.87320145;5696588.01820000;471.48964979;35723.000000;1.000000;1.000000;1.000000;1.000000;-0.003675;0.003675;-0.003675;1.000000;0.54902;0.560784;0.470588
445636.91650208;5696587.90669830;471.49265005;22616.000000;1.000000;1.000000;1.000000;1.000000;0.039625;-0.039625;0.039625;1.000000;0.313725;0.380392;0.258824
445636.88230331;5696587.86769875;471.49524977;52685.000000;1.000000;1.000000;1.000000;1.000000;0.005426;-0.005426;0.005426;1.000000;0.796078;0.819608;0.756863
445636.91780289;5696587.86919983;471.48994972;29555.000000;1.000000;1.000000;1.000000;1.000000;0.039201;-0.039201;0.039201;1.000000;0.419608;0.482353;0.376471
445637.02820023;5696587.87529953;471.49034979;25186.000000;1.000000;1.000000;1.000000;1.000000;0.045300;0.045300;-0.045300;1.000000;0.337255;0.431373;0.262745
445636.88459976;5696587.79269989;471.49685003;45232.000000;1.000000;1.000000;1.000000;1.000000;-0.037371;0.037371;-0.037371;1.000000;0.686275;0.701961;0.662745
445636.95779999;5696587.79769905;471.49084999;37008.000000;1.000000;1.000000;1.000000;1.000000;-0.034350;0.034350;-0.034350;1.000000;0.560784;0.580392;0.521569
445636.84840210;5696587.75639923;471.49704983;35980.000000;1.000000;1.000000;1.000000;1.000000;-0.078917;0.078917;-0.078917;1.000000;0.564706;0.556863;0.486275
445636.88620193;5696587.75759895;471.49184992;35466.000000;1.000000;1.000000;1.000000;1.000000;-0.072405;0.072405;-0.072405;1.000000;0.545098;0.556863;0.458824
445636.88970001;5696587.64519890;471.49294998;39578.000000;1.000000;1.000000;1.000000;1.000000;-0.184801;0.184801;-0.184801;1.000000;0.615686;0.607843;0.568627
445637.07680328;5696587.65409859;471.45725014;38036.000000;1.000000;1.000000;1.000000;1.000000;-0.175901;0.175901;-0.175901;1.000000;0.560784;0.607843;0.494118
445636.78120239;5696587.81619843;471.50635006;10537.000000;1.000000;1.000000;1.000000;1.000000;-0.096665;0.096665;-0.096665;1.000000;0.172549;0.160784;0.137255
445636.78230103;5696587.77869995;471.50604965;61423.000000;1.000000;1.000000;1.000000;1.000000;-0.107593;0.107593;-0.107593;1.000000;0.945098;0.941176;0.905882
445636.78370102;5696587.74359901;471.50565006;36237.000000;1.000000;1.000000;1.000000;1.000000;-0.127070;0.127070;-0.127070;1.000000;0.580392;0.556863;0.482353
445636.78490265;5696587.70609863;471.50525000;40863.000000;1.000000;1.000000;1.000000;1.000000;-0.154308;0.154308;-0.154308;1.000000;0.65098;0.627451;0.556863
445636.85050018;5696587.93129929;471.50394966;13107.000000;1.000000;1.000000;1.000000;1.000000;-0.026377;0.026377;-0.026377;1.000000;0.188235;0.215686;0.164706
445636.85170181;5696587.89379890;471.50355007;58339.000000;1.000000;1.000000;1.000000;1.000000;-0.025175;0.025175;-0.025175;1.000000;0.886275;0.901961;0.858824
445636.81870087;5696587.81740006;471.50575020;9766.000000;1.000000;1.000000;1.000000;1.000000;-0.059525;0.059525;-0.059525;1.000000;0.152941;0.152941;0.121569
445637.02370270;5696587.77079971;471.47725012;45232.000000;1.000000;1.000000;1.000000;1.000000;-0.059200;0.059200;-0.059200;1.000000;0.67451;0.713725;0.611765
445637.09890182;5696587.77549942;471.47835018;40349.000000;1.000000;1.000000;1.000000;1.000000;-0.054599;0.054599;-0.054599;1.000000;0.596078;0.643137;0.541176
445637.02530106;5696587.73569878;471.47225000;34952.000000;1.000000;1.000000;1.000000;1.000000;-0.094301;0.094301;-0.094301;1.000000;0.505882;0.576471;0.407843
445637.06280334;5696587.73689850;471.47155001;34695.000000;1.000000;1.000000;1.000000;1.000000;-0.093102;0.093102;-0.093102;1.000000;0.498039;0.572549;0.4
445636.85850342;5696587.93989952;471.49974968;12336.000000;1.000000;1.000000;1.000000;1.000000;-0.018373;0.018373;-0.018373;1.000000;0.180392;0.203922;0.141176
445637.01889999;5696587.68739899;471.46204998;19532.000000;1.000000;1.000000;1.000000;1.000000;-0.142601;0.142601;-0.142601;1.000000;0.266667;0.329412;0.215686
445636.83520325;5696587.64299973;471.50444986;52685.000000;1.000000;1.000000;1.000000;1.000000;-0.191588;0.191588;-0.191588;1.000000;0.819608;0.807843;0.768627
445636.98240097;5696587.64869888;471.46455004;10280.000000;1.000000;1.000000;1.000000;1.000000;-0.181301;0.181301;-0.181301;1.000000;0.152941;0.172549;0.117647
445636.97910126;5696587.97559937;471.49165012;39835.000000;1.000000;1.000000;1.000000;1.000000;0.102224;-0.102224;0.102224;1.000000;0.580392;0.643137;0.505882
445636.94860275;5696587.82429894;471.49074986;19789.000000;1.000000;1.000000;1.000000;1.000000;-0.010845;0.010845;-0.010845;1.000000;0.278431;0.333333;0.215686
445636.99920090;5696587.67749985;471.46334984;18247.000000;1.000000;1.000000;1.000000;1.000000;-0.152500;0.152500;-0.152500;1.000000;0.254902;0.309804;0.203922
445637.00040253;5696587.64009865;471.46294977;12336.000000;1.000000;1.000000;1.000000;1.000000;-0.189901;0.189901;-0.189901;1.000000;0.180392;0.203922;0.14902
445636.72410019;5696587.83309944;471.51104977;8995.000000;1.000000;1.000000;1.000000;1.000000;-0.152777;0.152777;-0.152777;1.000000;0.141176;0.145098;0.101961
445636.83889969;5696587.97919853;471.49694969;21845.000000;1.000000;1.000000;1.000000;1.000000;-0.037977;0.037977;-0.037977;1.000000;0.329412;0.34902;0.282353
445636.88120087;5696587.83049973;471.49475004;24672.000000;1.000000;1.000000;1.000000;1.000000;0.004324;-0.004324;0.004324;1.000000;0.360784;0.4;0.32549
445636.68830307;5696588.00899895;471.52775003;30069.000000;1.000000;1.000000;1.000000;1.000000;-0.188574;0.188574;-0.188574;1.000000;0.431373;0.494118;0.345098
445636.72690018;5696587.97269829;471.53144981;22359.000000;1.000000;1.000000;1.000000;1.000000;-0.149977;0.149977;-0.149977;1.000000;0.329412;0.368627;0.258824
445637.02320297;5696588.02289970;471.49184992;23644.000000;1.000000;1.000000;1.000000;1.000000;0.072424;-0.072424;0.072424;1.000000;0.34902;0.384314;0.270588
445637.02460297;5696587.98769959;471.49144985;24415.000000;1.000000;1.000000;1.000000;1.000000;0.071082;-0.071082;0.071082;1.000000;0.341176;0.411765;0.270588
445636.76700027;5696587.90119942;471.53004982;44204.000000;1.000000;1.000000;1.000000;1.000000;-0.109877;0.109877;-0.109877;1.000000;0.682353;0.686275;0.615686
445636.88100250;5696587.90519913;471.49795010;20817.000000;1.000000;1.000000;1.000000;1.000000;0.004126;-0.004126;0.004126;1.000000;0.298039;0.337255;0.266667
445636.91880234;5696587.83169945;471.49184992;25700.000000;1.000000;1.000000;1.000000;1.000000;0.001699;-0.001699;0.001699;1.000000;0.368627;0.423529;0.317647
445636.95670135;5696587.83519943;471.48894979;30069.000000;1.000000;1.000000;1.000000;1.000000;0.013808;-0.013808;0.013808;1.000000;0.423529;0.498039;0.360784
445637.00370224;5696588.04099854;471.49585011;38293.000000;1.000000;1.000000;1.000000;1.000000;0.091925;-0.091925;0.091925;1.000000;0.576471;0.607843;0.482353
445637.00490005;5696588.00350006;471.49545004;32639.000000;1.000000;1.000000;1.000000;1.000000;0.090727;-0.090727;0.090727;1.000000;0.478431;0.52549;0.411765
445636.99559982;5696587.97639854;471.49004986;34952.000000;1.000000;1.000000;1.000000;1.000000;0.101030;-0.101030;0.101030;1.000000;0.505882;0.568627;0.423529
445636.93110092;5696587.78619965;471.48955013;59367.000000;1.000000;1.000000;1.000000;1.000000;-0.043800;0.043800;-0.043800;1.000000;0.901961;0.917647;0.866667
445636.68930252;5696587.97149857;471.53204967;17733.000000;1.000000;1.000000;1.000000;1.000000;-0.187574;0.187574;-0.187574;1.000000;0.25098;0.305882;0.145098
445636.75210007;5696588.05939873;471.51494982;17476.000000;1.000000;1.000000;1.000000;1.000000;-0.124777;0.124777;-0.124777;1.000000;0.258824;0.282353;0.211765
445636.95210083;5696587.73069962;471.47814991;41377.000000;1.000000;1.000000;1.000000;1.000000;-0.100112;0.100112;-0.100112;1.000000;0.619608;0.658824;0.52549
445636.95240219;5696587.65599831;471.47265007;24158.000000;1.000000;1.000000;1.000000;1.000000;-0.174489;0.174489;-0.174489;1.000000;0.368627;0.380392;0.321569
445636.77980240;5696588.04999931;471.50215008;22102.000000;1.000000;1.000000;1.000000;1.000000;-0.097075;0.097075;-0.097075;1.000000;0.337255;0.34902;0.286275
445636.86230286;5696587.82979973;471.49854996;15677.000000;1.000000;1.000000;1.000000;1.000000;-0.014575;0.014575;-0.014575;1.000000;0.227451;0.254902;0.2
445636.82800110;5696587.79089935;471.50355007;43433.000000;1.000000;1.000000;1.000000;1.000000;-0.062592;0.062592;-0.062592;1.000000;0.670588;0.666667;0.639216
445636.79300125;5696587.71699913;471.50575020;30840.000000;1.000000;1.000000;1.000000;1.000000;-0.140728;0.140728;-0.140728;1.000000;0.498039;0.470588;0.396078
445636.98120316;5696587.68619926;471.46495010;31611.000000;1.000000;1.000000;1.000000;1.000000;-0.143801;0.143801;-0.143801;1.000000;0.462745;0.513725;0.396078
445636.76440247;5696587.97389992;471.53084995;8995.000000;1.000000;1.000000;1.000000;1.000000;-0.112474;0.112474;-0.112474;1.000000;0.133333;0.152941;0.0862745
445636.69060333;5696587.93400009;471.52934982;36494.000000;1.000000;1.000000;1.000000;1.000000;-0.186274;0.186274;-0.186274;1.000000;0.541176;0.592157;0.427451
445636.78390320;5696587.95579918;471.52685024;16191.000000;1.000000;1.000000;1.000000;1.000000;-0.092974;0.092974;-0.092974;1.000000;0.247059;0.258824;0.203922
445636.93610199;5696587.89079865;471.49095013;16705.000000;1.000000;1.000000;1.000000;1.000000;0.059225;-0.059225;0.059225;1.000000;0.215686;0.298039;0.152941
445636.85810287;5696587.70879944;471.49464991;25443.000000;1.000000;1.000000;1.000000;1.000000;-0.122646;0.122646;-0.122646;1.000000;0.407843;0.392157;0.333333
445636.86150177;5696587.67109879;471.49665024;32639.000000;1.000000;1.000000;1.000000;1.000000;-0.159643;0.159643;-0.159643;1.000000;0.509804;0.501961;0.458824
445636.83770187;5696588.01439865;471.49265005;41891.000000;1.000000;1.000000;1.000000;1.000000;-0.039175;0.039175;-0.039175;1.000000;0.643137;0.65098;0.580392
445636.83400162;5696588.05199821;471.49764969;34952.000000;1.000000;1.000000;1.000000;1.000000;-0.042875;0.042875;-0.042875;1.000000;0.54902;0.537255;0.478431
445636.68530090;5696587.86939819;471.51205017;40092.000000;1.000000;1.000000;1.000000;1.000000;-0.191576;0.191576;-0.191576;1.000000;0.596078;0.643137;0.517647
445636.72300156;5696587.87059982;471.50904991;55255.000000;1.000000;1.000000;1.000000;1.000000;-0.153875;0.153875;-0.153875;1.000000;0.843137;0.858824;0.764706
445636.76030167;5696587.87169846;471.51314976;38807.000000;1.000000;1.000000;1.000000;1.000000;-0.116575;0.116575;-0.116575;1.000000;0.603922;0.603922;0.517647
445636.68640335;5696587.83189972;471.51394989;7710.000000;1.000000;1.000000;1.000000;1.000000;-0.190474;0.190474;-0.190474;1.000000;0.117647;0.129412;0.0823529
445636.79720123;5696587.83809860;471.50734999;25700.000000;1.000000;1.000000;1.000000;1.000000;-0.079676;0.079676;-0.079676;1.000000;0.4;0.4;0.352941
445636.72500046;5696587.79549988;471.51755001;34695.000000;1.000000;1.000000;1.000000;1.000000;-0.155746;0.155746;-0.155746;1.000000;0.541176;0.529412;0.498039
445636.76280029;5696587.79679878;471.50995018;36237.000000;1.000000;1.000000;1.000000;1.000000;-0.118810;0.118810;-0.118810;1.000000;0.564706;0.556863;0.52549
445636.82850082;5696587.94959839;471.51014997;22873.000000;1.000000;1.000000;1.000000;1.000000;-0.048376;0.048376;-0.048376;1.000000;0.345098;0.360784;0.317647
445636.83200272;5696587.91189964;471.50985004;46003.000000;1.000000;1.000000;1.000000;1.000000;-0.044874;0.044874;-0.044874;1.000000;0.698039;0.713725;0.666667
445636.95460327;5696587.86339958;471.49154999;25957.000000;1.000000;1.000000;1.000000;1.000000;0.036564;-0.036564;0.036564;1.000000;0.352941;0.439216;0.282353
445636.98780258;5696587.73449905;471.47284986;36751.000000;1.000000;1.000000;1.000000;1.000000;-0.095501;0.095501;-0.095501;1.000000;0.541176;0.6;0.439216
445637.09169968;5696587.92329987;471.47744991;16191.000000;1.000000;1.000000;1.000000;1.000000;0.067652;-0.067652;0.067652;1.000000;0.207843;0.294118;0.105882
445636.72670181;5696587.76050003;471.51025011;40863.000000;1.000000;1.000000;1.000000;1.000000;-0.165477;0.165477;-0.165477;1.000000;0.647059;0.627451;0.568627
445637.12360199;5696588.03719910;471.47324993;46003.000000;1.000000;1.000000;1.000000;1.000000;-0.027975;0.027975;-0.027975;1.000000;0.701961;0.713725;0.65098
445636.83329971;5696587.87669952;471.51184990;44718.000000;1.000000;1.000000;1.000000;1.000000;-0.043577;0.043577;-0.043577;1.000000;0.682353;0.694118;0.627451
445637.08930023;5696587.99829872;471.47825005;12336.000000;1.000000;1.000000;1.000000;1.000000;0.006327;-0.006327;0.006327;1.000000;0.160784;0.223529;0.0901961
445637.08820160;5696588.03579910;471.47634985;16705.000000;1.000000;1.000000;1.000000;1.000000;0.007425;-0.007425;0.007425;1.000000;0.247059;0.27451;0.180392
445636.69100006;5696587.75669868;471.51555016;38293.000000;1.000000;1.000000;1.000000;1.000000;-0.199808;0.199808;-0.199808;1.000000;0.603922;0.588235;0.521569
445636.71570023;5696588.02069862;471.51515009;25700.000000;1.000000;1.000000;1.000000;1.000000;-0.161177;0.161177;-0.161177;1.000000;0.376471;0.419608;0.317647
445636.75330170;5696588.02189835;471.51454975;7453.000000;1.000000;1.000000;1.000000;1.000000;-0.123575;0.123575;-0.123575;1.000000;0.0980392;0.133333;0.054902
445636.82610138;5696588.07129868;471.50444986;35209.000000;1.000000;1.000000;1.000000;1.000000;-0.050776;0.050776;-0.050776;1.000000;0.54902;0.541176;0.486275
445636.83690079;5696587.81110008;471.50414993;11565.000000;1.000000;1.000000;1.000000;1.000000;-0.044219;0.044219;-0.044219;1.000000;0.180392;0.184314;0.152941
445636.84169968;5696587.66119965;471.50035002;50886.000000;1.000000;1.000000;1.000000;1.000000;-0.172427;0.172427;-0.172427;1.000000;0.792157;0.776471;0.737255
445636.95600327;5696587.66749962;471.46824982;34438.000000;1.000000;1.000000;1.000000;1.000000;-0.163066;0.163066;-0.163066;1.000000;0.52549;0.537255;0.470588
445637.01430328;5696587.77169998;471.47914984;44461.000000;1.000000;1.000000;1.000000;1.000000;-0.058300;0.058300;-0.058300;1.000000;0.662745;0.701961;0.596078
445637.08940323;5696587.77399834;471.47784998;43433.000000;1.000000;1.000000;1.000000;1.000000;-0.056002;0.056002;-0.056002;1.000000;0.647059;0.690196;0.588235
445637.01570328;5696587.73419960;471.47405006;34181.000000;1.000000;1.000000;1.000000;1.000000;-0.095800;0.095800;-0.095800;1.000000;0.486275;0.564706;0.388235
445637.05340012;5696587.73549850;471.47114994;37265.000000;1.000000;1.000000;1.000000;1.000000;-0.094501;0.094501;-0.094501;1.000000;0.537255;0.611765;0.435294
445636.74670227;5696587.93799980;471.53884985;55255.000000;1.000000;1.000000;1.000000;1.000000;-0.130175;0.130175;-0.130175;1.000000;0.843137;0.854902;0.780392
445636.71300323;5696587.86219986;471.50614979;45746.000000;1.000000;1.000000;1.000000;1.000000;-0.163874;0.163874;-0.163874;1.000000;0.686275;0.721569;0.623529
445636.78920181;5696587.82709892;471.50684978;16191.000000;1.000000;1.000000;1.000000;1.000000;-0.087723;0.087723;-0.087723;1.000000;0.254902;0.25098;0.211765
445636.79040344;5696587.78969963;471.50645020;55512.000000;1.000000;1.000000;1.000000;1.000000;-0.095403;0.095403;-0.095403;1.000000;0.854902;0.85098;0.819608
445636.79170044;5696587.75219925;471.50374987;34438.000000;1.000000;1.000000;1.000000;1.000000;-0.115360;0.115360;-0.115360;1.000000;0.54902;0.52549;0.462745
445636.75880249;5696587.67579849;471.50374987;42919.000000;1.000000;1.000000;1.000000;1.000000;-0.194216;0.194216;-0.194216;1.000000;0.682353;0.658824;0.584314
445636.82209976;5696587.97829826;471.50554993;14392.000000;1.000000;1.000000;1.000000;1.000000;-0.054777;0.054777;-0.054777;1.000000;0.215686;0.235294;0.168627
445636.85980042;5696587.90479858;471.50164988;37265.000000;1.000000;1.000000;1.000000;1.000000;-0.017076;0.017076;-0.017076;1.000000;0.560784;0.584314;0.537255
445636.82680328;5696587.82839973;471.50394966;15420.000000;1.000000;1.000000;1.000000;1.000000;-0.050099;0.050099;-0.050099;1.000000;0.231373;0.247059;0.2
445636.82950027;5696587.75569923;471.50085022;35980.000000;1.000000;1.000000;1.000000;1.000000;-0.088120;0.088120;-0.088120;1.000000;0.564706;0.556863;0.490196
445636.83070190;5696587.71829994;471.50044968;33410.000000;1.000000;1.000000;1.000000;1.000000;-0.120868;0.120868;-0.120868;1.000000;0.52549;0.513725;0.447059
445637.05420120;5696587.69109924;471.46364977;22359.000000;1.000000;1.000000;1.000000;1.000000;-0.138901;0.138901;-0.138901;1.000000;0.309804;0.380392;0.247059
445636.82610138;5696588.04109962;471.49475004;39321.000000;1.000000;1.000000;1.000000;1.000000;-0.050776;0.050776;-0.050776;1.000000;0.611765;0.607843;0.54902
445636.71460159;5696587.83159836;471.51055004;7967.000000;1.000000;1.000000;1.000000;1.000000;-0.162275;0.162275;-0.162275;1.000000;0.12549;0.129412;0.0862745
445636.92080124;5696587.77779968;471.49125006;54484.000000;1.000000;1.000000;1.000000;1.000000;-0.052200;0.052200;-0.052200;1.000000;0.827451;0.847059;0.784314
445636.84890182;5696587.73539932;471.49454977;35980.000000;1.000000;1.000000;1.000000;1.000000;-0.098650;0.098650;-0.098650;1.000000;0.572549;0.552941;0.486275
445636.88980301;5696588.07259949;471.49574997;33153.000000;1.000000;1.000000;1.000000;1.000000;0.012926;-0.012926;0.012926;1.000000;0.513725;0.513725;0.45098
445636.85250290;5696587.87739952;471.50334980;51143.000000;1.000000;1.000000;1.000000;1.000000;-0.024374;0.024374;-0.024374;1.000000;0.776471;0.796078;0.737255
445636.75750168;5696587.71329887;471.50645020;40606.000000;1.000000;1.000000;1.000000;1.000000;-0.166942;0.166942;-0.166942;1.000000;0.647059;0.619608;0.545098
445636.82310303;5696587.68849953;471.50444986;30069.000000;1.000000;1.000000;1.000000;1.000000;-0.151374;0.151374;-0.151374;1.000000;0.47451;0.462745;0.407843
445636.82450302;5696587.65339859;471.50404980;56797.000000;1.000000;1.000000;1.000000;1.000000;-0.184204;0.184204;-0.184204;1.000000;0.878431;0.870588;0.827451
445636.97270020;5696587.69629868;471.46705009;32382.000000;1.000000;1.000000;1.000000;1.000000;-0.133701;0.133701;-0.133701;1.000000;0.478431;0.521569;0.403922
445637.04549988;5696587.69889839;471.46575024;22359.000000;1.000000;1.000000;1.000000;1.000000;-0.131331;0.131331;-0.131331;1.000000;0.301961;0.380392;0.239216
445637.08320053;5696587.70010002;471.46274998;26214.000000;1.000000;1.000000;1.000000;1.000000;-0.129900;0.129900;-0.129900;1.000000;0.360784;0.447059;0.266667
445636.94280060;5696587.73159988;471.47774984;40349.000000;1.000000;1.000000;1.000000;1.000000;-0.098460;0.098460;-0.098460;1.000000;0.611765;0.643137;0.513725
445636.94190033;5696587.69439896;471.47265007;28270.000000;1.000000;1.000000;1.000000;1.000000;-0.135625;0.135625;-0.135625;1.000000;0.427451;0.454902;0.345098
445636.94530304;5696587.65669830;471.47464993;20560.000000;1.000000;1.000000;1.000000;1.000000;-0.173403;0.173403;-0.173403;1.000000;0.317647;0.32549;0.27451
445636.79630096;5696587.67699821;471.50304987;40349.000000;1.000000;1.000000;1.000000;1.000000;-0.172922;0.172922;-0.172922;1.000000;0.643137;0.615686;0.556863
445636.78140076;5696588.02169998;471.51114990;17990.000000;1.000000;1.000000;1.000000;1.000000;-0.095476;0.095476;-0.095476;1.000000;0.262745;0.294118;0.211765
445636.86650284;5696587.77339943;471.49574997;51143.000000;1.000000;1.000000;1.000000;1.000000;-0.057543;0.057543;-0.057543;1.000000;0.784314;0.788235;0.737255
445636.90060242;5696587.81229980;471.49314978;10794.000000;1.000000;1.000000;1.000000;1.000000;-0.017700;0.017700;-0.017700;1.000000;0.156863;0.180392;0.121569
445636.74850281;5696587.87049873;471.51254990;39064.000000;1.000000;1.000000;1.000000;1.000000;-0.128374;0.128374;-0.128374;1.000000;0.603922;0.607843;0.529412
445636.67710312;5696587.83269890;471.51585009;7196.000000;1.000000;1.000000;1.000000;1.000000;-0.199774;0.199774;-0.199774;1.000000;0.113725;0.121569;0.0705882
445636.82150085;5696587.95019920;471.51214983;19275.000000;1.000000;1.000000;1.000000;1.000000;-0.055376;0.055376;-0.055376;1.000000;0.294118;0.305882;0.262745
445636.82260330;5696587.91269882;471.51405003;53199.000000;1.000000;1.000000;1.000000;1.000000;-0.054274;0.054274;-0.054274;1.000000;0.811765;0.819608;0.776471
445636.86250122;5696587.63349922;471.50094988;33153.000000;1.000000;1.000000;1.000000;1.000000;-0.197026;0.197026;-0.197026;1.000000;0.521569;0.509804;0.470588
445636.71840103;5696587.72149857;471.50944998;37008.000000;1.000000;1.000000;1.000000;1.000000;-0.192060;0.192060;-0.192060;1.000000;0.596078;0.568627;0.482353
445637.09080322;5696587.73659904;471.47284986;37522.000000;1.000000;1.000000;1.000000;1.000000;-0.093401;0.093401;-0.093401;1.000000;0.545098;0.615686;0.439216
445636.71730240;5696587.76129921;471.51214983;44461.000000;1.000000;1.000000;1.000000;1.000000;-0.173735;0.173735;-0.173735;1.000000;0.698039;0.682353;0.627451
445636.97820099;5696587.73299988;471.47475006;40863.000000;1.000000;1.000000;1.000000;1.000000;-0.097000;0.097000;-0.097000;1.000000;0.603922;0.658824;0.505882
445636.75480087;5696587.76019867;471.50915005;32125.000000;1.000000;1.000000;1.000000;1.000000;-0.140623;0.140623;-0.140623;1.000000;0.517647;0.494118;0.427451
445636.75350006;5696587.79769905;471.51195004;34181.000000;1.000000;1.000000;1.000000;1.000000;-0.127535;0.127535;-0.127535;1.000000;0.537255;0.52549;0.490196
445636.82380112;5696587.87519844;471.51364996;41120.000000;1.000000;1.000000;1.000000;1.000000;-0.053076;0.053076;-0.053076;1.000000;0.627451;0.643137;0.576471
445637.11660202;5696587.96309860;471.47434999;28270.000000;1.000000;1.000000;1.000000;1.000000;-0.034832;0.034832;-0.034832;1.000000;0.4;0.47451;0.317647
445636.74380310;5696588.02039917;471.51415016;7710.000000;1.000000;1.000000;1.000000;1.000000;-0.133074;0.133074;-0.133074;1.000000;0.0980392;0.141176;0.054902
445637.07870300;5696588.03429993;471.47814991;11822.000000;1.000000;1.000000;1.000000;1.000000;0.016924;-0.016924;0.016924;1.000000;0.176471;0.2;0.0980392
445637.11630066;5696588.03559883;471.47524979;38550.000000;1.000000;1.000000;1.000000;1.000000;-0.020674;0.020674;-0.020674;1.000000;0.588235;0.603922;0.529412
445637.11530121;5696587.99829872;471.47244980;18761.000000;1.000000;1.000000;1.000000;1.000000;-0.019674;0.019674;-0.019674;1.000000;0.262745;0.321569;0.192157
445636.74600037;5696587.73999985;471.50624992;22359.000000;1.000000;1.000000;1.000000;1.000000;-0.158835;0.158835;-0.158835;1.000000;0.380392;0.337255;0.266667
445636.81060226;5696588.00509842;471.50295021;15934.000000;1.000000;1.000000;1.000000;1.000000;-0.066275;0.066275;-0.066275;1.000000;0.239216;0.258824;0.192157
445636.74250229;5696587.85249908;471.50505020;30326.000000;1.000000;1.000000;1.000000;1.000000;-0.134375;0.134375;-0.134375;1.000000;0.458824;0.478431;0.396078
445636.85550125;5696587.78369911;471.50005009;51657.000000;1.000000;1.000000;1.000000;1.000000;-0.050997;0.050997;-0.050997;1.000000;0.788235;0.796078;0.756863
445636.82140167;5696587.74479874;471.50274994;38036.000000;1.000000;1.000000;1.000000;1.000000;-0.101670;0.101670;-0.101670;1.000000;0.603922;0.584314;0.521569
445636.97030075;5696587.75009926;471.47685005;36751.000000;1.000000;1.000000;1.000000;1.000000;-0.079901;0.079901;-0.079901;1.000000;0.545098;0.592157;0.45098
445636.86380203;5696588.04469879;471.49424984;33667.000000;1.000000;1.000000;1.000000;1.000000;-0.013075;0.013075;-0.013075;1.000000;0.52549;0.521569;0.447059
445636.90139969;5696588.04589851;471.49354984;35466.000000;1.000000;1.000000;1.000000;1.000000;0.024523;-0.024523;0.024523;1.000000;0.54902;0.552941;0.466667
445636.93890198;5696588.04709824;471.49294998;32125.000000;1.000000;1.000000;1.000000;1.000000;0.062025;-0.062025;0.062025;1.000000;0.490196;0.509804;0.4
445636.67800339;5696588.00049980;471.53184988;31611.000000;1.000000;1.000000;1.000000;1.000000;-0.198874;0.198874;-0.198874;1.000000;0.454902;0.521569;0.360784
445636.97750290;5696588.01069839;471.49665024;35466.000000;1.000000;1.000000;1.000000;1.000000;0.100626;-0.100626;0.100626;1.000000;0.52549;0.568627;0.439216
445636.85250290;5696587.69989975;471.49655010;22873.000000;1.000000;1.000000;1.000000;1.000000;-0.132364;0.132364;-0.132364;1.000000;0.368627;0.352941;0.298039
445636.88910110;5696587.66389854;471.49314978;36494.000000;1.000000;1.000000;1.000000;1.000000;-0.166101;0.166101;-0.166101;1.000000;0.568627;0.560784;0.517647
445636.78840073;5696588.06779869;471.50505020;43947.000000;1.000000;1.000000;1.000000;1.000000;-0.088476;0.088476;-0.088476;1.000000;0.67451;0.678431;0.627451
445636.78989990;5696588.03269966;471.50234987;16448.000000;1.000000;1.000000;1.000000;1.000000;-0.086977;0.086977;-0.086977;1.000000;0.243137;0.266667;0.196078
445636.97440155;5696587.63999947;471.46875002;13878.000000;1.000000;1.000000;1.000000;1.000000;-0.190001;0.190001;-0.190001;1.000000;0.207843;0.223529;0.176471
445636.67700012;5696588.06369980;471.53025009;43433.000000;1.000000;1.000000;1.000000;1.000000;-0.199877;0.199877;-0.199877;1.000000;0.643137;0.682353;0.611765
445636.89920242;5696588.07399948;471.49615004;34695.000000;1.000000;1.000000;1.000000;1.000000;0.022326;-0.022326;0.022326;1.000000;0.541176;0.537255;0.478431
445636.82769974;5696588.03399857;471.49475004;39578.000000;1.000000;1.000000;1.000000;1.000000;-0.049177;0.049177;-0.049177;1.000000;0.611765;0.611765;0.541176
445636.73859985;5696587.92709930;471.54075005;54741.000000;1.000000;1.000000;1.000000;1.000000;-0.138277;0.138277;-0.138277;1.000000;0.839216;0.85098;0.772549
445636.74740036;5696587.70489891;471.50584986;46260.000000;1.000000;1.000000;1.000000;1.000000;-0.180040;0.180040;-0.180040;1.000000;0.733333;0.709804;0.627451
445636.90620239;5696587.89819916;471.49434998;20817.000000;1.000000;1.000000;1.000000;1.000000;0.029325;-0.029325;0.029325;1.000000;0.290196;0.34902;0.247059
445636.87210281;5696587.85929878;471.49704983;41120.000000;1.000000;1.000000;1.000000;1.000000;-0.004774;0.004774;-0.004774;1.000000;0.619608;0.643137;0.580392
445636.90750320;5696587.86079987;471.49165012;53713.000000;1.000000;1.000000;1.000000;1.000000;0.030626;-0.030626;0.030626;1.000000;0.792157;0.847059;0.756863
445636.98610123;5696587.82549866;471.49014999;16705.000000;1.000000;1.000000;1.000000;1.000000;-0.004501;0.004501;-0.004501;1.000000;0.219608;0.294118;0.168627
445636.87450226;5696587.78429993;471.49624969;58596.000000;1.000000;1.000000;1.000000;1.000000;-0.045762;0.045762;-0.045762;1.000000;0.894118;0.905882;0.862745
445636.91209991;5696587.78559883;471.49335005;58082.000000;1.000000;1.000000;1.000000;1.000000;-0.044579;0.044579;-0.044579;1.000000;0.886275;0.894118;0.847059
445636.87710007;5696587.70939835;471.49084999;22873.000000;1.000000;1.000000;1.000000;1.000000;0.120602;-0.120602;0.120602;1.000000;0.364706;0.356863;0.286275
