//X;Y;Z;Intensity;Return Number;Number Of Returns;Scan Direction Flag;Point Source ID;C2M signed distances[-][<0.8];C2M signed distances[<0.4];C2M signed distances[-][<0.2];Stump121;Rf;Gf;Bf
300
445604.74760159;5696576.28459938;473.06374981;49087.000000;1.000000;1.000000;1.000000;1.000000;0.057648;-0.057648;0.057648;1.000000;0.756863;0.752941;0.721569
445604.77910145;5696576.39849957;473.06654980;25957.000000;1.000000;1.000000;1.000000;1.000000;-0.068618;0.068618;-0.068618;1.000000;0.403922;0.396078;0.384314
445604.78180130;5696576.32359894;473.05874969;43433.000000;1.000000;1.000000;1.000000;1.000000;0.006537;-0.006537;0.006537;1.000000;0.698039;0.658824;0.588235
445604.83090218;5696576.27919872;473.06974985;27242.000000;1.000000;1.000000;1.000000;1.000000;-0.050801;0.050801;-0.050801;1.000000;0.439216;0.419608;0.360784
445604.67670162;5696576.38439949;473.08034994;4626.000000;1.000000;1.000000;1.000000;1.000000;-0.119523;0.119523;-0.119523;1.000000;0.0823529;0.0705882;0.0627451
445604.63200195;5696576.39059933;473.09934999;6682.000000;1.000000;1.000000;1.000000;1.000000;-0.162822;0.162822;-0.162822;1.000000;0.113725;0.105882;0.0745098
445604.72970207;5696576.23519905;473.04605009;44461.000000;1.000000;1.000000;1.000000;1.000000;0.108818;-0.108818;0.108818;1.000000;0.701961;0.678431;0.627451
445604.71580132;5696576.34819897;473.07004978;47802.000000;1.000000;1.000000;1.000000;1.000000;-0.069742;0.069742;-0.069742;1.000000;0.745098;0.733333;0.690196
445604.71450146;5696576.38569935;473.07275011;11565.000000;1.000000;1.000000;1.000000;1.000000;-0.088385;0.088385;-0.088385;1.000000;0.184314;0.176471;0.168627
445604.67810162;5696576.34699924;473.07534983;58339.000000;1.000000;1.000000;1.000000;1.000000;-0.106392;0.106392;-0.106392;1.000000;0.901961;0.894118;0.854902
445604.67580135;5696576.42199905;473.07375004;18504.000000;1.000000;1.000000;1.000000;1.000000;-0.141360;0.141360;-0.141360;1.000000;0.313725;0.278431;0.25098
445604.60460098;5696576.37889870;473.11194994;25957.000000;1.000000;1.000000;1.000000;1.000000;-0.185102;0.185102;-0.185102;1.000000;0.415686;0.396078;0.34902
445604.67470177;5696576.45949944;473.07184984;10794.000000;1.000000;1.000000;1.000000;1.000000;-0.168897;0.168897;-0.168897;1.000000;0.196078;0.160784;0.12549
445604.63700111;5696576.45599945;473.07004978;8995.000000;1.000000;1.000000;1.000000;1.000000;-0.192947;0.192947;-0.192947;1.000000;0.164706;0.133333;0.109804
445604.64980133;5696576.34719952;473.08104994;53713.000000;1.000000;1.000000;1.000000;1.000000;-0.134430;0.134430;-0.134430;1.000000;0.831373;0.823529;0.792157
445604.61190136;5696576.38279922;473.11464979;29812.000000;1.000000;1.000000;1.000000;1.000000;-0.179181;0.179181;-0.179181;1.000000;0.470588;0.454902;0.419608
445604.78100212;5696576.31429871;473.05865004;36237.000000;1.000000;1.000000;1.000000;1.000000;0.015844;-0.015844;0.015844;1.000000;0.588235;0.552941;0.486275
445604.74540146;5696576.31279953;473.06624987;43433.000000;1.000000;1.000000;1.000000;1.000000;0.041462;-0.041462;0.041462;1.000000;0.694118;0.658824;0.607843
445604.70930107;5696576.27419956;473.06185009;28784.000000;1.000000;1.000000;1.000000;1.000000;0.092542;-0.092542;0.092542;1.000000;0.443137;0.447059;0.415686
445604.70800217;5696576.31169899;473.06454994;44461.000000;1.000000;1.000000;1.000000;1.000000;0.077322;-0.077322;0.077322;1.000000;0.709804;0.678431;0.627451
445604.77710159;5696576.42439945;473.06204988;6939.000000;1.000000;1.000000;1.000000;1.000000;-0.094592;0.094592;-0.094592;1.000000;0.12549;0.101961;0.0941176
445604.73970135;5696576.42549904;473.06274988;10537.000000;1.000000;1.000000;1.000000;1.000000;-0.104909;0.104909;-0.104909;1.000000;0.188235;0.152941;0.137255
445604.77630146;5696576.46429928;473.05784990;42662.000000;1.000000;1.000000;1.000000;1.000000;-0.134473;0.134473;-0.134473;1.000000;0.666667;0.65098;0.611765
445604.80710133;5696576.19509895;473.06064989;28270.000000;1.000000;1.000000;1.000000;1.000000;-0.134901;0.134901;-0.134901;1.000000;0.427451;0.462745;0.298039
445604.83140190;5696576.26039894;473.07184984;8224.000000;1.000000;1.000000;1.000000;1.000000;-0.069601;0.069601;-0.069601;1.000000;0.145098;0.133333;0.0627451
445604.71640213;5696576.32949932;473.06984999;42662.000000;1.000000;1.000000;1.000000;1.000000;0.066727;-0.066727;0.066727;1.000000;0.678431;0.65098;0.596078
445604.71510132;5696576.36689957;473.07254984;56540.000000;1.000000;1.000000;1.000000;1.000000;-0.077389;0.077389;-0.077389;1.000000;0.866667;0.866667;0.843137
445604.75170143;5696576.40569885;473.06764986;13621.000000;1.000000;1.000000;1.000000;1.000000;-0.081963;0.081963;-0.081963;1.000000;0.223529;0.203922;0.203922
445604.71400173;5696576.40439899;473.07065012;8995.000000;1.000000;1.000000;1.000000;1.000000;-0.101555;0.101555;-0.101555;1.000000;0.14902;0.137255;0.12549
445604.67520149;5696576.44069870;473.07394983;38550.000000;1.000000;1.000000;1.000000;1.000000;-0.154603;0.154603;-0.154603;1.000000;0.623529;0.584314;0.545098
445604.78330143;5696576.51949890;473.06815006;58853.000000;1.000000;1.000000;1.000000;1.000000;-0.189499;0.189499;-0.189499;1.000000;0.909804;0.901961;0.858824
445604.67410095;5696576.47589882;473.06734993;16448.000000;1.000000;1.000000;1.000000;1.000000;-0.182135;0.182135;-0.182135;1.000000;0.278431;0.25098;0.207843
445604.67640121;5696576.40319927;473.07354977;3598.000000;1.000000;1.000000;1.000000;1.000000;-0.129416;0.129416;-0.129416;1.000000;0.0784314;0.0509804;0.0431373
445604.75280197;5696576.36819942;473.06965019;54484.000000;1.000000;1.000000;1.000000;1.000000;-0.048773;0.048773;-0.048773;1.000000;0.839216;0.835294;0.803922
445604.75430115;5696576.33299931;473.06694986;50115.000000;1.000000;1.000000;1.000000;1.000000;-0.028981;0.028981;-0.028981;1.000000;0.796078;0.760784;0.709804
445604.68110092;5696576.32799919;473.07284977;39064.000000;1.000000;1.000000;1.000000;1.000000;0.102046;-0.102046;0.102046;1.000000;0.619608;0.6;0.541176
445604.75220116;5696576.38689907;473.06984999;34181.000000;1.000000;1.000000;1.000000;1.000000;-0.064760;0.064760;-0.064760;1.000000;0.521569;0.52549;0.509804
445604.75360115;5696576.35169895;473.06944992;37779.000000;1.000000;1.000000;1.000000;1.000000;-0.036642;0.036642;-0.036642;1.000000;0.6;0.576471;0.529412
445604.67960175;5696576.30959900;473.06794979;43433.000000;1.000000;1.000000;1.000000;1.000000;0.105516;-0.105516;0.105516;1.000000;0.690196;0.662745;0.607843
445604.76710136;5696576.26659878;473.05975010;49087.000000;1.000000;1.000000;1.000000;1.000000;0.065395;-0.065395;0.065395;1.000000;0.760784;0.752941;0.705882
445604.80110176;5696576.30539902;473.05945017;15677.000000;1.000000;1.000000;1.000000;1.000000;-0.024601;0.024601;-0.024601;1.000000;0.270588;0.239216;0.172549
445604.77470215;5696576.49939926;473.06285002;57311.000000;1.000000;1.000000;1.000000;1.000000;-0.169609;0.169609;-0.169609;1.000000;0.878431;0.878431;0.843137
445604.63100155;5696576.38129910;473.10155012;8224.000000;1.000000;1.000000;1.000000;1.000000;-0.160542;0.160542;-0.160542;1.000000;0.145098;0.121569;0.101961
445604.73730095;5696576.49819954;473.05884983;39578.000000;1.000000;1.000000;1.000000;1.000000;-0.174330;0.174330;-0.174330;1.000000;0.619608;0.607843;0.556863
445604.70300110;5696576.45929916;473.06614973;10023.000000;1.000000;1.000000;1.000000;1.000000;-0.152113;0.152113;-0.152113;1.000000;0.184314;0.14902;0.109804
445604.60390099;5696576.36739929;473.10484983;20817.000000;1.000000;1.000000;1.000000;1.000000;-0.183086;0.183086;-0.183086;1.000000;0.341176;0.317647;0.27451
445604.62760170;5696576.41899879;473.09954979;29041.000000;1.000000;1.000000;1.000000;1.000000;-0.179190;0.179190;-0.179190;1.000000;0.470588;0.439216;0.407843
445604.76350220;5696576.30419930;473.06234982;31354.000000;1.000000;1.000000;1.000000;1.000000;0.032416;-0.032416;0.032416;1.000000;0.505882;0.47451;0.431373
445604.69190224;5696576.26409920;473.06325008;24158.000000;1.000000;1.000000;1.000000;1.000000;0.112538;-0.112538;0.112538;1.000000;0.364706;0.376471;0.337255
445604.72810181;5696576.30279930;473.06535007;50886.000000;1.000000;1.000000;1.000000;1.000000;0.061381;-0.061381;0.061381;1.000000;0.796078;0.776471;0.733333
445604.79860123;5696576.38039883;473.06255009;49601.000000;1.000000;1.000000;1.000000;1.000000;0.050399;-0.050399;0.050399;1.000000;0.760784;0.764706;0.72549
445604.75980194;5696576.41659935;473.06584980;11051.000000;1.000000;1.000000;1.000000;1.000000;-0.089686;0.089686;-0.089686;1.000000;0.188235;0.164706;0.156863
445604.72230156;5696576.41539867;473.06645014;7710.000000;1.000000;1.000000;1.000000;1.000000;-0.104846;0.104846;-0.104846;1.000000;0.141176;0.113725;0.101961
445604.72110184;5696576.45059879;473.06215002;21074.000000;1.000000;1.000000;1.000000;1.000000;-0.135614;0.135614;-0.135614;1.000000;0.352941;0.313725;0.278431
445604.75770195;5696576.49169930;473.05964996;29298.000000;1.000000;1.000000;1.000000;1.000000;-0.163686;0.163686;-0.163686;1.000000;0.454902;0.45098;0.411765
445604.72000130;5696576.48809917;473.06024982;35723.000000;1.000000;1.000000;1.000000;1.000000;-0.170236;0.170236;-0.170236;1.000000;0.564706;0.54902;0.498039
445604.68220146;5696576.48689945;473.06554987;24672.000000;1.000000;1.000000;1.000000;1.000000;-0.186557;0.186557;-0.186557;1.000000;0.4;0.380392;0.321569
445604.75870140;5696576.45189960;473.05924990;25186.000000;1.000000;1.000000;1.000000;1.000000;-0.124323;0.124323;-0.124323;1.000000;0.411765;0.380392;0.345098
445604.79750164;5696576.41789921;473.06295015;6425.000000;1.000000;1.000000;1.000000;1.000000;0.087899;-0.087899;0.087899;1.000000;0.105882;0.0980392;0.0901961
445604.83510216;5696576.41909893;473.05994989;19275.000000;1.000000;1.000000;1.000000;1.000000;0.089099;-0.089099;0.089099;1.000000;0.305882;0.298039;0.27451
445604.83400162;5696576.38179882;473.05945017;38293.000000;1.000000;1.000000;1.000000;1.000000;0.051799;-0.051799;0.051799;1.000000;0.588235;0.596078;0.541176
445604.79990204;5696576.34289940;473.05984976;46260.000000;1.000000;1.000000;1.000000;1.000000;0.012899;-0.012899;0.012899;1.000000;0.733333;0.709804;0.635294
445604.69060143;5696576.30159958;473.06605007;43176.000000;1.000000;1.000000;1.000000;1.000000;0.096786;-0.096786;0.096786;1.000000;0.678431;0.662745;0.611765
445604.72950180;5696576.26539906;473.06034996;59881.000000;1.000000;1.000000;1.000000;1.000000;0.083958;-0.083958;0.083958;1.000000;0.913725;0.917647;0.894118
445604.79990204;5696576.13979919;473.05504992;26471.000000;1.000000;1.000000;1.000000;1.000000;-0.190201;0.190201;-0.190201;1.000000;0.415686;0.423529;0.301961
445604.82890137;5696576.32629879;473.05625011;17476.000000;1.000000;1.000000;1.000000;1.000000;-0.003701;0.003701;-0.003701;1.000000;0.298039;0.266667;0.188235
445604.72090157;5696576.24519928;473.05504992;60395.000000;1.000000;1.000000;1.000000;1.000000;0.105182;-0.105182;0.105182;1.000000;0.929412;0.92549;0.890196
445604.82770164;5696576.36379917;473.05664970;36237.000000;1.000000;1.000000;1.000000;1.000000;0.033799;-0.033799;0.033799;1.000000;0.564706;0.560784;0.494118
445604.82540138;5696576.43869884;473.05744984;11822.000000;1.000000;1.000000;1.000000;1.000000;0.108699;-0.108699;0.108699;1.000000;0.2;0.180392;0.152941
445604.82180222;5696576.47409924;473.05534985;44461.000000;1.000000;1.000000;1.000000;1.000000;-0.144099;0.144099;-0.144099;1.000000;0.694118;0.682353;0.627451
445604.64080151;5696576.35489948;473.08764984;31611.000000;1.000000;1.000000;1.000000;1.000000;-0.144487;0.144487;-0.144487;1.000000;0.498039;0.482353;0.458824
445604.74670227;5696576.47169884;473.05655005;28784.000000;1.000000;1.000000;1.000000;1.000000;-0.146306;0.146306;-0.146306;1.000000;0.458824;0.439216;0.396078
445604.60280140;5696576.35129936;473.09525015;41377.000000;1.000000;1.000000;1.000000;1.000000;-0.181579;0.181579;-0.181579;1.000000;0.65098;0.631373;0.592157
445604.63850220;5696576.42989929;473.08844997;26214.000000;1.000000;1.000000;1.000000;1.000000;-0.175773;0.175773;-0.175773;1.000000;0.427451;0.396078;0.360784
445604.64690216;5696576.41969879;473.08874990;19018.000000;1.000000;1.000000;1.000000;1.000000;-0.163104;0.163104;-0.163104;1.000000;0.32549;0.282353;0.247059
445604.75610168;5696576.24659927;473.05434992;33924.000000;1.000000;1.000000;1.000000;1.000000;0.087670;-0.087670;0.087670;1.000000;0.545098;0.521569;0.439216
445604.79860123;5696576.17499931;473.05305006;37522.000000;1.000000;1.000000;1.000000;1.000000;-0.155001;0.155001;-0.155001;1.000000;0.576471;0.596078;0.443137
445604.82200153;5696576.25889881;473.07144978;8224.000000;1.000000;1.000000;1.000000;1.000000;0.071101;-0.071101;0.071101;1.000000;0.141176;0.129412;0.0627451
445604.74340160;5696576.36899956;473.07154991;56540.000000;1.000000;1.000000;1.000000;1.000000;-0.055669;0.055669;-0.055669;1.000000;0.870588;0.866667;0.839216
445604.70550163;5696576.36549957;473.07445004;53970.000000;1.000000;1.000000;1.000000;1.000000;-0.085358;0.085358;-0.085358;1.000000;0.827451;0.827451;0.803922
445604.74220093;5696576.40419872;473.06724979;16705.000000;1.000000;1.000000;1.000000;1.000000;-0.084737;0.084737;-0.084737;1.000000;0.266667;0.25098;0.247059
445604.70460136;5696576.40299900;473.07014992;8224.000000;1.000000;1.000000;1.000000;1.000000;-0.107215;0.107215;-0.107215;1.000000;0.141176;0.121569;0.113725
445604.70120152;5696576.44069870;473.06815006;32382.000000;1.000000;1.000000;1.000000;1.000000;-0.137717;0.137717;-0.137717;1.000000;0.529412;0.490196;0.45098
445604.66560181;5696576.43919952;473.07585003;33153.000000;1.000000;1.000000;1.000000;1.000000;-0.160427;0.160427;-0.160427;1.000000;0.541176;0.501961;0.462745
445604.77380188;5696576.51799877;473.07004978;59110.000000;1.000000;1.000000;1.000000;1.000000;-0.188230;0.188230;-0.188230;1.000000;0.909804;0.905882;0.866667
445604.67150124;5696576.32659920;473.07474997;41891.000000;1.000000;1.000000;1.000000;1.000000;0.111677;-0.111677;0.111677;1.000000;0.662745;0.639216;0.588235
445604.70720108;5696576.33039959;473.06944992;43433.000000;1.000000;1.000000;1.000000;1.000000;-0.075927;0.075927;-0.075927;1.000000;0.686275;0.662745;0.603922
445604.74470146;5696576.33149918;473.06885006;50629.000000;1.000000;1.000000;1.000000;1.000000;-0.038455;0.038455;-0.038455;1.000000;0.807843;0.768627;0.713725
445604.82310112;5696576.22139938;473.07334997;50886.000000;1.000000;1.000000;1.000000;1.000000;-0.108601;0.108601;-0.108601;1.000000;0.772549;0.8;0.670588
445604.61340149;5696576.36889942;473.10295012;15420.000000;1.000000;1.000000;1.000000;1.000000;-0.174126;0.174126;-0.174126;1.000000;0.262745;0.231373;0.188235
445604.63030155;5696576.40229900;473.10874989;26471.000000;1.000000;1.000000;1.000000;1.000000;-0.169064;0.169064;-0.169064;1.000000;0.423529;0.403922;0.368627
445604.59440144;5696576.36589916;473.10435011;22102.000000;1.000000;1.000000;1.000000;1.000000;-0.192109;0.192109;-0.192109;1.000000;0.356863;0.337255;0.290196
445604.75780113;5696576.21159943;473.04705002;28270.000000;1.000000;1.000000;1.000000;1.000000;0.121079;-0.121079;0.121079;1.000000;0.478431;0.431373;0.313725
445604.82810219;5696576.34269913;473.05644991;28784.000000;1.000000;1.000000;1.000000;1.000000;0.012699;-0.012699;0.012699;1.000000;0.458824;0.447059;0.364706
445604.82230194;5696576.45539959;473.05515005;34695.000000;1.000000;1.000000;1.000000;1.000000;-0.125400;0.125400;-0.125400;1.000000;0.545098;0.533333;0.478431
445604.78470142;5696576.45419891;473.05814983;34952.000000;1.000000;1.000000;1.000000;1.000000;-0.124199;0.124199;-0.124199;1.000000;0.552941;0.537255;0.494118
445604.60420139;5696576.33729942;473.08584978;55255.000000;1.000000;1.000000;1.000000;1.000000;-0.179074;0.179074;-0.179074;1.000000;0.854902;0.847059;0.815686
445604.74840172;5696576.49019917;473.05684998;25186.000000;1.000000;1.000000;1.000000;1.000000;-0.163920;0.163920;-0.163920;1.000000;0.396078;0.392157;0.341176
445604.67880161;5696576.35619934;473.07774975;57054.000000;1.000000;1.000000;1.000000;1.000000;-0.107565;0.107565;-0.107565;1.000000;0.878431;0.87451;0.847059
445604.60310181;5696576.39059933;473.11905005;47545.000000;1.000000;1.000000;1.000000;1.000000;-0.189951;0.189951;-0.189951;1.000000;0.745098;0.729412;0.686275
445604.63230141;5696576.33479889;473.08005001;60395.000000;1.000000;1.000000;1.000000;1.000000;-0.150902;0.150902;-0.150902;1.000000;0.929412;0.92549;0.894118
445604.74780090;5696576.22879894;473.04675009;26985.000000;1.000000;1.000000;1.000000;1.000000;0.107189;-0.107189;0.107189;1.000000;0.45098;0.411765;0.329412
445604.83060177;5696576.25109871;473.07175018;9509.000000;1.000000;1.000000;1.000000;1.000000;-0.078901;0.078901;-0.078901;1.000000;0.156863;0.156863;0.0705882
445604.71660145;5696576.35749920;473.07254984;58339.000000;1.000000;1.000000;1.000000;1.000000;-0.071985;0.071985;-0.071985;1.000000;0.898039;0.894118;0.858824
445604.71320160;5696576.39519890;473.07044985;7967.000000;1.000000;1.000000;1.000000;1.000000;-0.095606;0.095606;-0.095606;1.000000;0.12549;0.121569;0.113725
445604.67660149;5696576.43119915;473.07394983;30326.000000;1.000000;1.000000;1.000000;1.000000;-0.146932;0.146932;-0.146932;1.000000;0.498039;0.458824;0.419608
445604.67310150;5696576.46669872;473.06955006;8738.000000;1.000000;1.000000;1.000000;1.000000;-0.175477;0.175477;-0.175477;1.000000;0.160784;0.129412;0.0941176
445604.75070198;5696576.39639957;473.06984999;14135.000000;1.000000;1.000000;1.000000;1.000000;-0.073894;0.073894;-0.073894;1.000000;0.223529;0.215686;0.207843
445604.67780121;5696576.39369877;473.07354977;3084.000000;1.000000;1.000000;1.000000;1.000000;-0.123090;0.123090;-0.123090;1.000000;0.0705882;0.0431373;0.0392157
445604.75190170;5696576.35889919;473.06944992;39835.000000;1.000000;1.000000;1.000000;1.000000;-0.042546;0.042546;-0.042546;1.000000;0.623529;0.611765;0.572549
445604.68030174;5696576.31879910;473.07044985;41377.000000;1.000000;1.000000;1.000000;1.000000;0.103433;-0.103433;0.103433;1.000000;0.662745;0.631373;0.572549
445604.79370125;5696576.27799900;473.06344988;8481.000000;1.000000;1.000000;1.000000;1.000000;-0.052001;0.052001;-0.052001;1.000000;0.152941;0.129412;0.0901961
445604.82780178;5696576.31469925;473.05835011;18761.000000;1.000000;1.000000;1.000000;1.000000;-0.015301;0.015301;-0.015301;1.000000;0.317647;0.290196;0.207843
445604.77370174;5696576.31259926;473.06054976;38550.000000;1.000000;1.000000;1.000000;1.000000;0.019789;-0.019789;0.019789;1.000000;0.627451;0.584314;0.52549
445604.82960136;5696576.28869923;473.06745007;28784.000000;1.000000;1.000000;1.000000;1.000000;-0.041301;0.041301;-0.041301;1.000000;0.462745;0.443137;0.380392
445604.80810173;5696576.35389908;473.05795004;42405.000000;1.000000;1.000000;1.000000;1.000000;0.023899;-0.023899;0.023899;1.000000;0.666667;0.654902;0.580392
445604.65040215;5696576.35409935;473.08115007;37522.000000;1.000000;1.000000;1.000000;1.000000;-0.134895;0.134895;-0.134895;1.000000;0.588235;0.572549;0.54902
445604.73590096;5696576.31139954;473.06584980;47802.000000;1.000000;1.000000;1.000000;1.000000;0.050757;-0.050757;0.050757;1.000000;0.760784;0.729412;0.67451
445604.69970139;5696576.27269943;473.06374981;21331.000000;1.000000;1.000000;1.000000;1.000000;0.101209;-0.101209;0.101209;1.000000;0.321569;0.333333;0.298039
445604.84300144;5696576.42769917;473.05804970;15420.000000;1.000000;1.000000;1.000000;1.000000;0.097699;-0.097699;0.097699;1.000000;0.247059;0.235294;0.207843
445604.69840153;5696576.31019886;473.06645014;43947.000000;1.000000;1.000000;1.000000;1.000000;0.087008;-0.087008;0.087008;1.000000;0.698039;0.670588;0.615686
445604.77010162;5696576.42509945;473.06174995;9252.000000;1.000000;1.000000;1.000000;1.000000;-0.095987;0.095987;-0.095987;1.000000;0.160784;0.137255;0.129412
445604.73250206;5696576.42379959;473.06474974;6939.000000;1.000000;1.000000;1.000000;1.000000;-0.106589;0.106589;-0.106589;1.000000;0.137255;0.0980392;0.0784314
445604.76540192;5696576.50019939;473.06244995;42405.000000;1.000000;1.000000;1.000000;1.000000;-0.171120;0.171120;-0.171120;1.000000;0.654902;0.654902;0.611765
445604.72910126;5696576.45929916;473.05795004;25186.000000;1.000000;1.000000;1.000000;1.000000;-0.140132;0.140132;-0.140132;1.000000;0.415686;0.380392;0.341176
445604.72800167;5696576.49909885;473.06075003;39064.000000;1.000000;1.000000;1.000000;1.000000;-0.177857;0.177857;-0.177857;1.000000;0.611765;0.6;0.54902
445604.62060173;5696576.41959961;473.10155012;23387.000000;1.000000;1.000000;1.000000;1.000000;-0.185587;0.185587;-0.185587;1.000000;0.380392;0.356863;0.321569
445604.77860172;5696576.21179874;473.05494978;35723.000000;1.000000;1.000000;1.000000;1.000000;0.118288;-0.118288;0.118288;1.000000;0.576471;0.556863;0.419608
445604.63890179;5696576.41109951;473.09294989;10537.000000;1.000000;1.000000;1.000000;1.000000;-0.165463;0.165463;-0.165463;1.000000;0.188235;0.156863;0.133333
445604.80710133;5696576.16709908;473.05574991;15934.000000;1.000000;1.000000;1.000000;1.000000;-0.162901;0.162901;-0.162901;1.000000;0.235294;0.270588;0.117647
445604.75480087;5696576.31199940;473.06435015;39578.000000;1.000000;1.000000;1.000000;1.000000;0.033562;-0.033562;0.033562;1.000000;0.639216;0.6;0.552941
445604.71850212;5696576.27339943;473.06225016;37522.000000;1.000000;1.000000;1.000000;1.000000;0.085907;-0.085907;0.085907;1.000000;0.576471;0.580392;0.552941
445604.78990181;5696576.38819893;473.06454994;55255.000000;1.000000;1.000000;1.000000;1.000000;-0.058199;0.058199;-0.058199;1.000000;0.847059;0.85098;0.823529
445604.71720131;5696576.31079872;473.06495001;44461.000000;1.000000;1.000000;1.000000;1.000000;0.068665;-0.068665;0.068665;1.000000;0.705882;0.678431;0.627451
445604.82420166;5696576.42709930;473.05954983;10023.000000;1.000000;1.000000;1.000000;1.000000;0.097099;-0.097099;0.097099;1.000000;0.168627;0.152941;0.129412
445604.76700218;5696576.23859890;473.05474998;30069.000000;1.000000;1.000000;1.000000;1.000000;0.092813;-0.092813;0.092813;1.000000;0.498039;0.458824;0.364706
445604.78660210;5696576.42589958;473.06015017;6682.000000;1.000000;1.000000;1.000000;1.000000;-0.095900;0.095900;-0.095900;1.000000;0.117647;0.0980392;0.0862745
445604.74900158;5696576.42469891;473.06314995;14906.000000;1.000000;1.000000;1.000000;1.000000;-0.100660;0.100660;-0.100660;1.000000;0.254902;0.219608;0.203922
445604.71360214;5696576.42319878;473.06614973;10280.000000;1.000000;1.000000;1.000000;1.000000;-0.116274;0.116274;-0.116274;1.000000;0.184314;0.14902;0.129412
445604.78420170;5696576.50079926;473.06325008;62451.000000;1.000000;1.000000;1.000000;1.000000;-0.170799;0.170799;-0.170799;1.000000;0.956863;0.960784;0.921569
445604.64060219;5696576.38279922;473.09964993;8224.000000;1.000000;1.000000;1.000000;1.000000;-0.151990;0.151990;-0.151990;1.000000;0.145098;0.121569;0.105882
445604.74680145;5696576.49969872;473.05924990;41120.000000;1.000000;1.000000;1.000000;1.000000;-0.173543;0.173543;-0.173543;1.000000;0.639216;0.631373;0.584314
445604.70920189;5696576.49849899;473.06225016;50372.000000;1.000000;1.000000;1.000000;1.000000;-0.184002;0.184002;-0.184002;1.000000;0.784314;0.772549;0.713725
445604.79400166;5696576.23129948;473.06285002;41377.000000;1.000000;1.000000;1.000000;1.000000;-0.098701;0.098701;-0.098701;1.000000;0.654902;0.643137;0.529412
445604.79280098;5696576.26869877;473.06554987;12850.000000;1.000000;1.000000;1.000000;1.000000;-0.061301;0.061301;-0.061301;1.000000;0.219608;0.196078;0.14902
445604.82930191;5696576.30749901;473.06075003;23644.000000;1.000000;1.000000;1.000000;1.000000;-0.022501;0.022501;-0.022501;1.000000;0.396078;0.360784;0.290196
445604.79170139;5696576.30399902;473.05894997;17733.000000;1.000000;1.000000;1.000000;1.000000;-0.026001;0.026001;-0.026001;1.000000;0.301961;0.270588;0.203922
445604.82410152;5696576.20509918;473.06855013;37779.000000;1.000000;1.000000;1.000000;1.000000;-0.124901;0.124901;-0.124901;1.000000;0.560784;0.611765;0.443137
445604.82150085;5696576.27769955;473.06934978;19789.000000;1.000000;1.000000;1.000000;1.000000;0.052300;-0.052300;0.052300;1.000000;0.321569;0.301961;0.25098
445604.82130154;5696576.25199898;473.07135012;11565.000000;1.000000;1.000000;1.000000;1.000000;0.078001;-0.078001;0.078001;1.000000;0.192157;0.184314;0.0980392
445604.70870216;5696576.32089909;473.06705000;41377.000000;1.000000;1.000000;1.000000;1.000000;0.074979;-0.074979;0.074979;1.000000;0.662745;0.631373;0.580392
445604.70730217;5696576.35829933;473.07214977;59367.000000;1.000000;1.000000;1.000000;1.000000;-0.080934;0.080934;-0.080934;1.000000;0.909804;0.909804;0.878431
445604.74130161;5696576.39489944;473.06944992;11308.000000;1.000000;1.000000;1.000000;1.000000;-0.077209;0.077209;-0.077209;1.000000;0.180392;0.176471;0.164706
445604.70360191;5696576.39369877;473.07235004;7196.000000;1.000000;1.000000;1.000000;1.000000;-0.101891;0.101891;-0.101891;1.000000;0.121569;0.109804;0.105882
445604.70260151;5696576.43119915;473.06804993;30326.000000;1.000000;1.000000;1.000000;1.000000;-0.129328;0.129328;-0.129328;1.000000;0.498039;0.454902;0.427451
445604.62920197;5696576.39069946;473.10855009;21845.000000;1.000000;1.000000;1.000000;1.000000;-0.165461;0.165461;-0.165461;1.000000;0.34902;0.333333;0.305882
445604.66390141;5696576.46749886;473.06914999;7196.000000;1.000000;1.000000;1.000000;1.000000;-0.181991;0.181991;-0.181991;1.000000;0.137255;0.105882;0.0745098
445604.77830132;5696576.38919933;473.06635000;52171.000000;1.000000;1.000000;1.000000;1.000000;-0.059396;0.059396;-0.059396;1.000000;0.796078;0.8;0.776471
445604.70650108;5696576.34909924;473.07194998;51143.000000;1.000000;1.000000;1.000000;1.000000;-0.078970;0.078970;-0.078970;1.000000;0.792157;0.784314;0.741176
445604.74290092;5696576.38779934;473.06944992;23130.000000;1.000000;1.000000;1.000000;1.000000;-0.070419;0.070419;-0.070419;1.000000;0.352941;0.356863;0.341176
445604.67090137;5696576.34529884;473.07494976;58853.000000;1.000000;1.000000;1.000000;1.000000;-0.113264;0.113264;-0.113264;1.000000;0.909804;0.901961;0.866667
445604.70410164;5696576.42179878;473.06804993;12336.000000;1.000000;1.000000;1.000000;1.000000;-0.121128;0.121128;-0.121128;1.000000;0.215686;0.180392;0.160784
445604.62840088;5696576.38139923;473.10844995;17990.000000;1.000000;1.000000;1.000000;1.000000;-0.163040;0.163040;-0.163040;1.000000;0.294118;0.270588;0.247059
445604.66520126;5696576.45799931;473.07135012;11565.000000;1.000000;1.000000;1.000000;1.000000;-0.174041;0.174041;-0.174041;1.000000;0.203922;0.172549;0.137255
445604.74260147;5696576.35969933;473.07135012;44975.000000;1.000000;1.000000;1.000000;1.000000;-0.050243;0.050243;-0.050243;1.000000;0.701961;0.690196;0.654902
445604.67100151;5696576.31959923;473.07235004;43433.000000;1.000000;1.000000;1.000000;1.000000;0.112607;-0.112607;0.112607;1.000000;0.694118;0.662745;0.611765
445604.74620159;5696576.32209881;473.06874992;50115.000000;1.000000;1.000000;1.000000;1.000000;0.037761;-0.037761;0.037761;1.000000;0.8;0.760784;0.709804
445604.81950195;5696576.32479961;473.05585005;22102.000000;1.000000;1.000000;1.000000;1.000000;0.005200;-0.005200;0.005200;1.000000;0.372549;0.337255;0.247059
445604.82010086;5696576.28719910;473.06705000;26728.000000;1.000000;1.000000;1.000000;1.000000;0.042801;-0.042801;0.042801;1.000000;0.427451;0.411765;0.352941
445604.82250221;5696576.21449955;473.07095005;50115.000000;1.000000;1.000000;1.000000;1.000000;-0.115500;0.115500;-0.115500;1.000000;0.756863;0.796078;0.65098
445604.70530136;5696576.38649948;473.07235004;8224.000000;1.000000;1.000000;1.000000;1.000000;-0.096172;0.096172;-0.096172;1.000000;0.137255;0.12549;0.117647
445604.74400146;5696576.35029896;473.07135012;38293.000000;1.000000;1.000000;1.000000;1.000000;-0.044078;0.044078;-0.044078;1.000000;0.603922;0.584314;0.541176
445604.67020138;5696576.31039913;473.06984999;43947.000000;1.000000;1.000000;1.000000;1.000000;0.114614;-0.114614;0.114614;1.000000;0.698039;0.670588;0.619608
445604.71130188;5696576.24369915;473.05695011;62194.000000;1.000000;1.000000;1.000000;1.000000;0.112279;-0.112279;0.112279;1.000000;0.952941;0.956863;0.92549
445604.85010155;5696576.47619923;473.05205013;43690.000000;1.000000;1.000000;1.000000;1.000000;-0.146199;0.146199;-0.146199;1.000000;0.686275;0.670588;0.6
445604.73950203;5696576.47009953;473.05625011;20560.000000;1.000000;1.000000;1.000000;1.000000;-0.146734;0.146734;-0.146734;1.000000;0.333333;0.313725;0.262745
445604.59360130;5696576.35219868;473.09254982;36751.000000;1.000000;1.000000;1.000000;1.000000;-0.190821;0.190821;-0.190821;1.000000;0.584314;0.560784;0.521569
445604.62890156;5696576.42839916;473.09034969;22102.000000;1.000000;1.000000;1.000000;1.000000;-0.182942;0.182942;-0.182942;1.000000;0.364706;0.333333;0.305882
445604.80930145;5696576.34209927;473.05784990;41377.000000;1.000000;1.000000;1.000000;1.000000;0.012099;-0.012099;0.012099;1.000000;0.658824;0.635294;0.556863
445604.80580147;5696576.45449932;473.05674984;23387.000000;1.000000;1.000000;1.000000;1.000000;0.124499;-0.124499;0.124499;1.000000;0.368627;0.360784;0.309804
445604.65780170;5696576.41169937;473.08914997;12850.000000;1.000000;1.000000;1.000000;1.000000;-0.149603;0.149603;-0.149603;1.000000;0.223529;0.192157;0.164706
445604.59290131;5696576.37989910;473.11375000;32382.000000;1.000000;1.000000;1.000000;1.000000;-0.196661;0.196661;-0.196661;1.000000;0.517647;0.494118;0.447059
445604.82270153;5696576.24249943;473.07364990;19789.000000;1.000000;1.000000;1.000000;1.000000;-0.087501;0.087501;-0.087501;1.000000;0.309804;0.317647;0.207843
445604.75620087;5696576.30249889;473.06435015;31868.000000;1.000000;1.000000;1.000000;1.000000;0.038488;-0.038488;0.038488;1.000000;0.513725;0.486275;0.443137
445604.72020157;5696576.26619919;473.06225016;54227.000000;1.000000;1.000000;1.000000;1.000000;0.089611;-0.089611;0.089611;1.000000;0.827451;0.831373;0.807843
445604.78910168;5696576.37889870;473.06435015;53456.000000;1.000000;1.000000;1.000000;1.000000;-0.048899;0.048899;-0.048899;1.000000;0.819608;0.823529;0.784314
445604.75030144;5696576.41519936;473.06544973;17219.000000;1.000000;1.000000;1.000000;1.000000;-0.091304;0.091304;-0.091304;1.000000;0.286275;0.258824;0.247059
445604.67140205;5696576.49499901;473.06274988;20046.000000;1.000000;1.000000;1.000000;1.000000;-0.199266;0.199266;-0.199266;1.000000;0.32549;0.313725;0.243137
445604.71260174;5696576.46069916;473.06425001;12079.000000;1.000000;1.000000;1.000000;1.000000;-0.148513;0.148513;-0.148513;1.000000;0.211765;0.180392;0.137255
445604.82530220;5696576.38959892;473.06145002;52685.000000;1.000000;1.000000;1.000000;1.000000;0.059599;-0.059599;0.059599;1.000000;0.803922;0.815686;0.768627
445604.66960152;5696576.35709961;473.07735016;53199.000000;1.000000;1.000000;1.000000;1.000000;-0.116715;0.116715;-0.116715;1.000000;0.823529;0.811765;0.784314
445604.66470154;5696576.42989929;473.07805016;21845.000000;1.000000;1.000000;1.000000;1.000000;-0.154934;0.154934;-0.154934;1.000000;0.368627;0.32549;0.286275
445604.79140099;5696576.35299881;473.06185009;43690.000000;1.000000;1.000000;1.000000;1.000000;0.022999;-0.022999;0.022999;1.000000;0.690196;0.670588;0.607843
445604.84890182;5696576.51369961;473.05474998;38807.000000;1.000000;1.000000;1.000000;1.000000;-0.183700;0.183700;-0.183700;1.000000;0.607843;0.6;0.521569
445604.63350113;5696576.35319908;473.09194996;32896.000000;1.000000;1.000000;1.000000;1.000000;-0.151414;0.151414;-0.151414;1.000000;0.517647;0.501961;0.470588
445604.74930199;5696576.24729927;473.05174973;38036.000000;1.000000;1.000000;1.000000;1.000000;0.089351;-0.089351;0.089351;1.000000;0.6;0.584314;0.517647
445604.78540142;5696576.21119888;473.05754997;35723.000000;1.000000;1.000000;1.000000;1.000000;0.118801;-0.118801;0.118801;1.000000;0.564706;0.560784;0.423529
445604.68330200;5696576.27189930;473.06304981;18504.000000;1.000000;1.000000;1.000000;1.000000;0.115502;-0.115502;0.115502;1.000000;0.286275;0.290196;0.25098
445604.75640114;5696576.27689941;473.05935003;62965.000000;1.000000;1.000000;1.000000;1.000000;0.059447;-0.059447;0.059447;1.000000;0.968627;0.964706;0.933333
445604.79480179;5696576.24049957;473.06535007;48830.000000;1.000000;1.000000;1.000000;1.000000;-0.089500;0.089500;-0.089500;1.000000;0.772549;0.752941;0.647059
445604.79850204;5696576.20289906;473.06034996;22873.000000;1.000000;1.000000;1.000000;1.000000;-0.127101;0.127101;-0.127101;1.000000;0.356863;0.372549;0.215686
445604.74950226;5696576.45269878;473.05884983;26728.000000;1.000000;1.000000;1.000000;1.000000;-0.127223;0.127223;-0.127223;1.000000;0.439216;0.403922;0.364706
445604.78340157;5696576.49159916;473.06085016;62194.000000;1.000000;1.000000;1.000000;1.000000;-0.161599;0.161599;-0.161599;1.000000;0.952941;0.956863;0.917647
445604.71170147;5696576.45149906;473.06404974;17733.000000;1.000000;1.000000;1.000000;1.000000;-0.140938;0.140938;-0.140938;1.000000;0.301961;0.262745;0.231373
445604.63970192;5696576.37349899;473.09954979;13878.000000;1.000000;1.000000;1.000000;1.000000;-0.149876;0.149876;-0.149876;1.000000;0.227451;0.211765;0.192157
445604.71040161;5696576.48669918;473.06215002;38550.000000;1.000000;1.000000;1.000000;1.000000;-0.172753;0.172753;-0.172753;1.000000;0.607843;0.592157;0.537255
445604.77570160;5696576.25869949;473.06005003;39578.000000;1.000000;1.000000;1.000000;1.000000;0.071686;-0.071686;0.071686;1.000000;0.631373;0.607843;0.541176
445604.80950172;5696576.29759892;473.06435015;19532.000000;1.000000;1.000000;1.000000;1.000000;-0.032401;0.032401;-0.032401;1.000000;0.32549;0.298039;0.247059
445604.77450188;5696576.29619892;473.06045010;29555.000000;1.000000;1.000000;1.000000;1.000000;0.034884;-0.034884;0.034884;1.000000;0.47451;0.45098;0.407843
445604.70040138;5696576.25399883;473.06124975;52171.000000;1.000000;1.000000;1.000000;1.000000;0.112337;-0.112337;0.112337;1.000000;0.792157;0.803922;0.776471
445604.80740173;5696576.37259872;473.06045010;33667.000000;1.000000;1.000000;1.000000;1.000000;0.042599;-0.042599;0.042599;1.000000;0.521569;0.52549;0.462745
445604.73690136;5696576.29499920;473.06334974;39835.000000;1.000000;1.000000;1.000000;1.000000;0.057982;-0.057982;0.057982;1.000000;0.623529;0.611765;0.576471
445604.70140179;5696576.29129894;473.06404974;39064.000000;1.000000;1.000000;1.000000;1.000000;0.090425;-0.090425;0.090425;1.000000;0.607843;0.6;0.560784
445604.77050217;5696576.40629871;473.06624987;7196.000000;1.000000;1.000000;1.000000;1.000000;-0.077336;0.077336;-0.077336;1.000000;0.117647;0.109804;0.105882
445604.76730164;5696576.44409950;473.05954983;21845.000000;1.000000;1.000000;1.000000;1.000000;-0.115192;0.115192;-0.115192;1.000000;0.356863;0.329412;0.298039
445604.76620110;5696576.48159893;473.05754997;35209.000000;1.000000;1.000000;1.000000;1.000000;-0.152541;0.152541;-0.152541;1.000000;0.54902;0.541176;0.505882
445604.72980125;5696576.44289883;473.06015017;20817.000000;1.000000;1.000000;1.000000;1.000000;-0.124859;0.124859;-0.124859;1.000000;0.352941;0.309804;0.282353
445604.65340145;5696576.47789867;473.06414988;7967.000000;1.000000;1.000000;1.000000;1.000000;-0.196730;0.196730;-0.196730;1.000000;0.145098;0.121569;0.0862745
445604.72730167;5696576.51779945;473.06325008;46774.000000;1.000000;1.000000;1.000000;1.000000;-0.195921;0.195921;-0.195921;1.000000;0.72549;0.721569;0.666667
445604.80580147;5696576.40769871;473.06314995;22616.000000;1.000000;1.000000;1.000000;1.000000;0.077699;-0.077699;0.077699;1.000000;0.345098;0.34902;0.329412
445604.84350212;5696576.40899952;473.06024982;49087.000000;1.000000;1.000000;1.000000;1.000000;0.079000;-0.079000;0.079000;1.000000;0.752941;0.756863;0.72549
445604.62250145;5696576.36339958;473.09865000;18761.000000;1.000000;1.000000;1.000000;1.000000;-0.164061;0.164061;-0.164061;1.000000;0.309804;0.282353;0.25098
445604.77300175;5696576.33139904;473.06314995;46003.000000;1.000000;1.000000;1.000000;1.000000;-0.010221;0.010221;-0.010221;1.000000;0.737255;0.698039;0.635294
445604.81010159;5696576.32569893;473.05774977;29041.000000;1.000000;1.000000;1.000000;1.000000;-0.004301;0.004301;-0.004301;1.000000;0.478431;0.443137;0.356863
445604.84170158;5696576.43719872;473.05585005;17733.000000;1.000000;1.000000;1.000000;1.000000;0.107199;-0.107199;0.107199;1.000000;0.290196;0.270588;0.239216
445604.81220158;5696576.27859886;473.06895020;10023.000000;1.000000;1.000000;1.000000;1.000000;-0.051401;0.051401;-0.051401;1.000000;0.172549;0.152941;0.105882
445604.65840157;5696576.39299877;473.08894970;4626.000000;1.000000;1.000000;1.000000;1.000000;-0.139733;0.139733;-0.139733;1.000000;0.0862745;0.0666667;0.0588235
445604.73020180;5696576.47089870;473.05585005;18504.000000;1.000000;1.000000;1.000000;1.000000;-0.150511;0.150511;-0.150511;1.000000;0.309804;0.282353;0.239216
445604.58650215;5696576.35049923;473.09214975;31097.000000;1.000000;1.000000;1.000000;1.000000;-0.197690;0.197690;-0.197690;1.000000;0.501961;0.47451;0.423529
445604.66710098;5696576.38289936;473.08225014;3855.000000;1.000000;1.000000;1.000000;1.000000;-0.127516;0.127516;-0.127516;1.000000;0.0784314;0.054902;0.054902
445604.63300140;5696576.34399899;473.08255007;50115.000000;1.000000;1.000000;1.000000;1.000000;-0.150777;0.150777;-0.150777;1.000000;0.776471;0.764706;0.733333
445604.61980160;5696576.43149956;473.09235003;12593.000000;1.000000;1.000000;1.000000;1.000000;-0.192295;0.192295;-0.192295;1.000000;0.215686;0.188235;0.164706
445604.63700111;5696576.41819962;473.09754993;32639.000000;1.000000;1.000000;1.000000;1.000000;-0.170681;0.170681;-0.170681;1.000000;0.529412;0.490196;0.454902
445604.79270180;5696576.31559952;473.05914976;30840.000000;1.000000;1.000000;1.000000;1.000000;-0.014400;0.014400;-0.014400;1.000000;0.505882;0.470588;0.396078
445604.77100189;5696576.38749893;473.06834986;49344.000000;1.000000;1.000000;1.000000;1.000000;-0.058763;0.058763;-0.058763;1.000000;0.752941;0.756863;0.733333
445604.73330124;5696576.38629921;473.07124998;17990.000000;1.000000;1.000000;1.000000;1.000000;-0.075181;0.075181;-0.075181;1.000000;0.27451;0.278431;0.266667
445604.69690140;5696576.34759911;473.07385017;54227.000000;1.000000;1.000000;1.000000;1.000000;-0.088003;0.088003;-0.088003;1.000000;0.839216;0.831373;0.788235
445604.69470222;5696576.42259892;473.06995012;15163.000000;1.000000;1.000000;1.000000;1.000000;-0.128037;0.128037;-0.128037;1.000000;0.262745;0.227451;0.2
445604.62110146;5696576.37969883;473.11035015;17476.000000;1.000000;1.000000;1.000000;1.000000;-0.169476;0.169476;-0.169476;1.000000;0.286275;0.266667;0.239216
445604.69120224;5696576.46029957;473.07025005;7967.000000;1.000000;1.000000;1.000000;1.000000;-0.159462;0.159462;-0.159462;1.000000;0.152941;0.117647;0.0862745
445604.62010201;5696576.41729935;473.10615017;30326.000000;1.000000;1.000000;1.000000;1.000000;-0.184928;0.184928;-0.184928;1.000000;0.486275;0.462745;0.415686
445604.65580185;5696576.45659931;473.07095005;11308.000000;1.000000;1.000000;1.000000;1.000000;-0.179552;0.179552;-0.179552;1.000000;0.2;0.168627;0.133333
445604.72190102;5696576.22659882;473.04554989;39835.000000;1.000000;1.000000;1.000000;1.000000;0.120168;-0.120168;0.120168;1.000000;0.631373;0.607843;0.552941
445604.73000153;5696576.23979958;473.04845001;47545.000000;1.000000;1.000000;1.000000;1.000000;0.104682;-0.104682;0.104682;1.000000;0.74902;0.72549;0.682353
445604.83620174;5696576.35369881;473.05454971;41120.000000;1.000000;1.000000;1.000000;1.000000;0.023699;-0.023699;0.023699;1.000000;0.639216;0.639216;0.564706
445604.75740154;5696576.46139915;473.05695011;37779.000000;1.000000;1.000000;1.000000;1.000000;-0.133894;0.133894;-0.133894;1.000000;0.596078;0.580392;0.533333
445604.65030106;5696576.38199909;473.09074976;6425.000000;1.000000;1.000000;1.000000;1.000000;-0.142642;0.142642;-0.142642;1.000000;0.113725;0.0980392;0.0823529
445604.61390121;5696576.34329899;473.09095003;59110.000000;1.000000;1.000000;1.000000;1.000000;-0.169747;0.169747;-0.169747;1.000000;0.913725;0.901961;0.870588
445604.73450096;5696576.34879883;473.07084991;41634.000000;1.000000;1.000000;1.000000;1.000000;-0.052133;0.052133;-0.052133;1.000000;0.654902;0.635294;0.592157
445604.66290100;5696576.30869873;473.07184984;44718.000000;1.000000;1.000000;1.000000;1.000000;0.122098;-0.122098;0.122098;1.000000;0.709804;0.682353;0.635294
445604.81330116;5696576.24109943;473.07084991;34695.000000;1.000000;1.000000;1.000000;1.000000;-0.088901;0.088901;-0.088901;1.000000;0.545098;0.541176;0.439216
445604.67300137;5696576.48779877;473.06514980;20817.000000;1.000000;1.000000;1.000000;1.000000;-0.192427;0.192427;-0.192427;1.000000;0.337255;0.321569;0.262745
445604.82470139;5696576.38269909;473.05905010;38550.000000;1.000000;1.000000;1.000000;1.000000;0.052699;-0.052699;0.052699;1.000000;0.592157;0.6;0.545098
445604.80470093;5696576.22089870;473.06554987;45489.000000;1.000000;1.000000;1.000000;1.000000;-0.109101;0.109101;-0.109101;1.000000;0.701961;0.713725;0.584314
445604.80250175;5696576.29589947;473.06164982;10023.000000;1.000000;1.000000;1.000000;1.000000;-0.034101;0.034101;-0.034101;1.000000;0.180392;0.14902;0.101961
445604.79060181;5696576.34379871;473.06174995;46517.000000;1.000000;1.000000;1.000000;1.000000;-0.013799;0.013799;-0.013799;1.000000;0.737255;0.713725;0.643137
445604.68110092;5696576.30009945;473.06554987;41634.000000;1.000000;1.000000;1.000000;1.000000;0.106317;-0.106317;0.106317;1.000000;0.654902;0.635294;0.584314
445604.71870144;5696576.30129917;473.06495001;49601.000000;1.000000;1.000000;1.000000;1.000000;0.070529;-0.070529;0.070529;1.000000;0.776471;0.756863;0.717647
445604.68240173;5696576.26269920;473.06285002;16705.000000;1.000000;1.000000;1.000000;1.000000;0.121140;-0.121140;0.121140;1.000000;0.254902;0.262745;0.227451
445604.75550087;5696576.26759918;473.05924990;58339.000000;1.000000;1.000000;1.000000;1.000000;0.068243;-0.068243;0.068243;1.000000;0.901961;0.894118;0.858824
445604.76500137;5696576.29479893;473.05994989;36751.000000;1.000000;1.000000;1.000000;1.000000;0.039594;-0.039594;0.039594;1.000000;0.584314;0.560784;0.52549
445604.69330223;5696576.25459869;473.06325008;42662.000000;1.000000;1.000000;1.000000;1.000000;0.117277;-0.117277;0.117277;1.000000;0.647059;0.658824;0.627451
445604.72730167;5696576.29349907;473.06524994;42919.000000;1.000000;1.000000;1.000000;1.000000;0.066699;-0.066699;0.066699;1.000000;0.666667;0.658824;0.619608
445604.75790222;5696576.44259937;473.05905010;20046.000000;1.000000;1.000000;1.000000;1.000000;-0.115390;0.115390;-0.115390;1.000000;0.333333;0.301961;0.270588
445604.75700195;5696576.48239906;473.05714991;29298.000000;1.000000;1.000000;1.000000;1.000000;-0.154622;0.154622;-0.154622;1.000000;0.462745;0.447059;0.411765
445604.72020157;5696576.44139870;473.06204988;17733.000000;1.000000;1.000000;1.000000;1.000000;-0.127942;0.127942;-0.127942;1.000000;0.305882;0.262745;0.231373
445604.64940174;5696576.40069874;473.09795000;11051.000000;1.000000;1.000000;1.000000;1.000000;-0.151264;0.151264;-0.151264;1.000000;0.188235;0.164706;0.145098
445604.71920212;5696576.47889908;473.05774977;21331.000000;1.000000;1.000000;1.000000;1.000000;-0.162041;0.162041;-0.162041;1.000000;0.34902;0.32549;0.286275
445604.71780212;5696576.51629932;473.06285002;49344.000000;1.000000;1.000000;1.000000;1.000000;-0.197420;0.197420;-0.197420;1.000000;0.768627;0.760784;0.698039
445604.67810162;5696576.37489899;473.08024981;12593.000000;1.000000;1.000000;1.000000;1.000000;-0.114220;0.114220;-0.114220;1.000000;0.207843;0.192157;0.180392
445604.60390099;5696576.33269890;473.08344986;54998.000000;1.000000;1.000000;1.000000;1.000000;-0.179246;0.179246;-0.179246;1.000000;0.85098;0.843137;0.807843
445604.60240181;5696576.40709885;473.11684992;43690.000000;1.000000;1.000000;1.000000;1.000000;-0.196484;0.196484;-0.196484;1.000000;0.682353;0.670588;0.623529
445604.63590153;5696576.44659908;473.07695009;10023.000000;1.000000;1.000000;1.000000;1.000000;-0.187805;0.187805;-0.187805;1.000000;0.180392;0.14902;0.121569
445604.79540165;5696576.44379910;473.05844976;16705.000000;1.000000;1.000000;1.000000;1.000000;0.113799;-0.113799;0.113799;1.000000;0.27451;0.254902;0.223529
445604.79880150;5696576.40829952;473.06514980;17733.000000;1.000000;1.000000;1.000000;1.000000;0.078300;-0.078300;0.078300;1.000000;0.278431;0.27451;0.258824
445604.83410175;5696576.40979870;473.06215002;45232.000000;1.000000;1.000000;1.000000;1.000000;0.079799;-0.079799;0.079799;1.000000;0.694118;0.694118;0.666667
445604.79780205;5696576.37109955;473.06234982;37008.000000;1.000000;1.000000;1.000000;1.000000;0.041100;-0.041100;0.041100;1.000000;0.568627;0.572549;0.513725
445604.61290176;5696576.36199959;473.10045006;20303.000000;1.000000;1.000000;1.000000;1.000000;-0.173207;0.173207;-0.173207;1.000000;0.333333;0.305882;0.266667
445604.76360138;5696576.33219917;473.06505014;48316.000000;1.000000;1.000000;1.000000;1.000000;-0.019649;0.019649;-0.019649;1.000000;0.772549;0.733333;0.678431
445604.68980225;5696576.29229935;473.06355001;38807.000000;1.000000;1.000000;1.000000;1.000000;0.100652;-0.100652;0.100652;1.000000;0.603922;0.6;0.552941
445604.66810139;5696576.39219959;473.08005001;3084.000000;1.000000;1.000000;1.000000;1.000000;-0.130766;0.130766;-0.130766;1.000000;0.0666667;0.0431373;0.0431373
445604.75080116;5696576.20989903;473.04435017;23644.000000;1.000000;1.000000;1.000000;1.000000;0.124375;-0.124375;0.124375;1.000000;0.407843;0.360784;0.254902
445604.69570168;5696576.38509949;473.07424976;6682.000000;1.000000;1.000000;1.000000;1.000000;-0.103340;0.103340;-0.103340;1.000000;0.109804;0.101961;0.0941176
445604.61010178;5696576.38999947;473.11695005;42919.000000;1.000000;1.000000;1.000000;1.000000;-0.183133;0.183133;-0.183133;1.000000;0.670588;0.654902;0.615686
445604.78800209;5696576.41639908;473.06244995;5911.000000;1.000000;1.000000;1.000000;1.000000;-0.086399;0.086399;-0.086399;1.000000;0.101961;0.0901961;0.0823529
445604.63850220;5696576.41099937;473.09994986;21074.000000;1.000000;1.000000;1.000000;1.000000;-0.165762;0.165762;-0.165762;1.000000;0.352941;0.317647;0.282353
445604.81490143;5696576.42799957;473.05914976;8995.000000;1.000000;1.000000;1.000000;1.000000;-0.098000;0.098000;-0.098000;1.000000;0.152941;0.137255;0.117647
445604.81600197;5696576.39049919;473.06104996;55512.000000;1.000000;1.000000;1.000000;1.000000;-0.060499;0.060499;-0.060499;1.000000;0.847059;0.854902;0.811765
445604.70350178;5696576.23509892;473.05644991;58082.000000;1.000000;1.000000;1.000000;1.000000;0.123880;-0.123880;0.123880;1.000000;0.890196;0.890196;0.858824
445604.65750130;5696576.38369949;473.08874990;6425.000000;1.000000;1.000000;1.000000;1.000000;-0.136621;0.136621;-0.136621;1.000000;0.109804;0.0980392;0.0901961
445604.58590134;5696576.34359940;473.08974983;35209.000000;1.000000;1.000000;1.000000;1.000000;-0.197694;0.197694;-0.197694;1.000000;0.556863;0.537255;0.490196
445604.65620144;5696576.41889961;473.08684971;16962.000000;1.000000;1.000000;1.000000;1.000000;-0.154962;0.154962;-0.154962;1.000000;0.294118;0.25098;0.215686
445604.80560120;5696576.20449932;473.06304981;26985.000000;1.000000;1.000000;1.000000;1.000000;-0.125501;0.125501;-0.125501;1.000000;0.411765;0.443137;0.278431
445604.78190144;5696576.35149868;473.06374981;42919.000000;1.000000;1.000000;1.000000;1.000000;-0.021534;0.021534;-0.021534;1.000000;0.678431;0.658824;0.6
445604.74680145;5696576.27539928;473.06124975;60909.000000;1.000000;1.000000;1.000000;1.000000;0.065580;-0.065580;0.065580;1.000000;0.933333;0.933333;0.901961
445604.83000191;5696576.26989944;473.07194998;16448.000000;1.000000;1.000000;1.000000;1.000000;-0.060101;0.060101;-0.060101;1.000000;0.266667;0.254902;0.192157
445604.71750172;5696576.34109886;473.07004978;44461.000000;1.000000;1.000000;1.000000;1.000000;-0.066557;0.066557;-0.066557;1.000000;0.701961;0.678431;0.623529
445604.67960175;5696576.33749874;473.07294991;46003.000000;1.000000;1.000000;1.000000;1.000000;-0.103796;0.103796;-0.103796;1.000000;0.717647;0.705882;0.658824
445604.71270187;5696576.41389950;473.06834986;6168.000000;1.000000;1.000000;1.000000;1.000000;-0.109539;0.109539;-0.109539;1.000000;0.117647;0.0901961;0.0784314
445604.67720135;5696576.41249950;473.07375004;9766.000000;1.000000;1.000000;1.000000;1.000000;-0.134262;0.134262;-0.134262;1.000000;0.176471;0.141176;0.12549
