//X;Y;Z;Intensity;Return Number;Number Of Returns;Scan Direction Flag;Point Source ID;C2M signed distances[-][<0.8];C2M signed distances[<0.4];C2M signed distances[-][<0.2];Stump108;Rf;Gf;Bf
299
445643.70829971;5696555.45659836;470.36535003;25186.000000;1.000000;1.000000;1.000000;1.000000;0.057813;-0.057813;0.057813;1.000000;0.392157;0.388235;0.376471
445643.77750214;5696555.74600037;470.41614987;36494.000000;1.000000;1.000000;1.000000;1.000000;-0.056875;-0.056875;0.056875;1.000000;0.556863;0.560784;0.54902
445643.69930084;5696555.17429932;470.39415004;5140.000000;1.000000;1.000000;1.000000;1.000000;-0.155708;0.155708;-0.155708;1.000000;0.0784314;0.0784314;0.0862745
445643.90730103;5696555.55649956;470.41275002;47031.000000;1.000000;1.000000;1.000000;1.000000;-0.186674;0.186674;-0.186674;1.000000;0.705882;0.72549;0.709804
445643.88700302;5696555.60319908;470.38675000;12336.000000;1.000000;1.000000;1.000000;1.000000;-0.166376;0.166376;-0.166376;1.000000;0.203922;0.188235;0.180392
445643.74250229;5696555.71669968;470.40494992;23901.000000;1.000000;1.000000;1.000000;1.000000;-0.021875;0.021875;-0.021875;1.000000;0.368627;0.368627;0.360784
445643.74130066;5696555.75419815;470.40765001;40606.000000;1.000000;1.000000;1.000000;1.000000;-0.020674;0.020674;-0.020674;1.000000;0.619608;0.627451;0.611765
445643.86540039;5696555.49090012;470.37514998;37265.000000;1.000000;1.000000;1.000000;1.000000;-0.146434;0.146434;-0.146434;1.000000;0.576471;0.572549;0.556863
445643.86660202;5696555.42549904;470.36745002;26728.000000;1.000000;1.000000;1.000000;1.000000;-0.170209;0.170209;-0.170209;1.000000;0.403922;0.415686;0.407843
445643.78390320;5696555.59649857;470.37975003;57311.000000;1.000000;1.000000;1.000000;1.000000;-0.063276;0.063276;-0.063276;1.000000;0.870588;0.882353;0.858824
445643.77270325;5696555.21710022;470.35835006;26214.000000;1.000000;1.000000;1.000000;1.000000;-0.124331;0.124331;-0.124331;1.000000;0.388235;0.407843;0.396078
445643.78550156;5696555.37489899;470.34924986;12593.000000;1.000000;1.000000;1.000000;1.000000;0.078896;-0.078896;0.078896;1.000000;0.180392;0.196078;0.207843
445643.76970108;5696555.70939835;470.41065003;10537.000000;1.000000;1.000000;1.000000;1.000000;-0.049074;-0.049074;0.049074;1.000000;0.160784;0.164706;0.156863
445643.77010162;5696555.48829849;470.35684993;18504.000000;1.000000;1.000000;1.000000;1.000000;-0.055414;0.055414;-0.055414;1.000000;0.301961;0.278431;0.262745
445643.83520325;5696555.31169899;470.36235001;27242.000000;1.000000;1.000000;1.000000;1.000000;-0.116029;0.116029;-0.116029;1.000000;0.407843;0.423529;0.427451
445643.76889999;5696555.32720001;470.35955002;1542.000000;1.000000;1.000000;1.000000;1.000000;-0.048354;0.048354;-0.048354;1.000000;0.0235294;0.0235294;0.0352941
445643.82250031;5696555.18189819;470.37424995;14906.000000;1.000000;1.000000;1.000000;1.000000;-0.179756;0.179756;-0.179756;1.000000;0.227451;0.231373;0.207843
445643.71850021;5696555.43699844;470.35854985;34695.000000;1.000000;1.000000;1.000000;1.000000;0.076245;-0.076245;0.076245;1.000000;0.533333;0.533333;0.52549
445643.71970184;5696555.20549973;470.36984994;23130.000000;1.000000;1.000000;1.000000;1.000000;-0.124500;0.124500;-0.124500;1.000000;0.345098;0.356863;0.360784
445643.72900208;5696555.40099915;470.36095001;14135.000000;1.000000;1.000000;1.000000;1.000000;0.071491;-0.071491;0.071491;1.000000;0.223529;0.215686;0.219608
445643.72550018;5696555.43639954;470.35655000;32382.000000;1.000000;1.000000;1.000000;1.000000;-0.077008;0.077008;-0.077008;1.000000;0.498039;0.498039;0.494118
445643.84490021;5696555.71409805;470.41184999;35209.000000;1.000000;1.000000;1.000000;1.000000;-0.124273;-0.124273;0.124273;1.000000;0.52549;0.545098;0.529412
445643.83839996;5696555.44229897;470.35474994;44718.000000;1.000000;1.000000;1.000000;1.000000;-0.137515;0.137515;-0.137515;1.000000;0.67451;0.690196;0.678431
445643.82240112;5696555.39480026;470.35115005;24929.000000;1.000000;1.000000;1.000000;1.000000;0.120653;-0.120653;0.120653;1.000000;0.360784;0.396078;0.376471
445643.78130157;5696555.68269928;470.40855004;41891.000000;1.000000;1.000000;1.000000;1.000000;-0.060675;-0.060675;0.060675;1.000000;0.635294;0.647059;0.639216
445643.72820099;5696555.43859871;470.35204985;34695.000000;1.000000;1.000000;1.000000;1.000000;-0.075128;0.075128;-0.075128;1.000000;0.533333;0.533333;0.52549
445643.87190063;5696555.51809891;470.38975002;27242.000000;1.000000;1.000000;1.000000;1.000000;-0.151274;0.151274;-0.151274;1.000000;0.423529;0.419608;0.403922
445643.71240051;5696555.35109909;470.36654999;17990.000000;1.000000;1.000000;1.000000;1.000000;0.021099;-0.021099;0.021099;1.000000;0.278431;0.278431;0.27451
445643.75900085;5696555.34459885;470.35695006;2313.000000;1.000000;1.000000;1.000000;1.000000;0.041057;-0.041057;0.041057;1.000000;0.0392157;0.0313725;0.0509804
445643.84850128;5696555.62059982;470.39684989;17219.000000;1.000000;1.000000;1.000000;1.000000;-0.127874;0.127874;-0.127874;1.000000;0.266667;0.262745;0.262745
445643.77280243;5696555.69279869;470.41065003;21331.000000;1.000000;1.000000;1.000000;1.000000;-0.052176;-0.052176;0.052176;1.000000;0.321569;0.329412;0.32549
445643.81330307;5696555.61919983;470.39524986;14649.000000;1.000000;1.000000;1.000000;1.000000;-0.092676;0.092676;-0.092676;1.000000;0.219608;0.231373;0.223529
445643.90080078;5696555.52929886;470.39584996;50629.000000;1.000000;1.000000;1.000000;1.000000;-0.180174;0.180174;-0.180174;1.000000;0.772549;0.780392;0.760784
445643.81080063;5696555.47289856;470.35614993;26728.000000;1.000000;1.000000;1.000000;1.000000;-0.098798;0.098798;-0.098798;1.000000;0.411765;0.411765;0.407843
445643.88510330;5696555.42599876;470.37294986;13364.000000;1.000000;1.000000;1.000000;1.000000;-0.186033;0.186033;-0.186033;1.000000;0.2;0.211765;0.207843
445643.84710129;5696555.46249969;470.35765006;56026.000000;1.000000;1.000000;1.000000;1.000000;-0.136272;0.136272;-0.136272;1.000000;0.85098;0.862745;0.847059
445643.70860107;5696555.21349915;470.37404992;32896.000000;1.000000;1.000000;1.000000;1.000000;-0.116501;0.116501;-0.116501;1.000000;0.494118;0.505882;0.509804
445643.77410324;5696555.42280014;470.33994987;28013.000000;1.000000;1.000000;1.000000;1.000000;-0.105362;0.105362;-0.105362;1.000000;0.423529;0.431373;0.427451
445643.88390167;5696555.46349915;470.37334992;22102.000000;1.000000;1.000000;1.000000;1.000000;-0.170591;0.170591;-0.170591;1.000000;0.337255;0.341176;0.329412
445643.82880219;5696555.63640030;470.39855005;20560.000000;1.000000;1.000000;1.000000;1.000000;-0.108175;0.108175;-0.108175;1.000000;0.313725;0.317647;0.313725
445643.73270233;5696555.49619873;470.37384989;8224.000000;1.000000;1.000000;1.000000;1.000000;-0.020625;0.020625;-0.020625;1.000000;0.145098;0.121569;0.117647
445643.79110153;5696555.21539886;470.36154987;16962.000000;1.000000;1.000000;1.000000;1.000000;-0.134537;0.134537;-0.134537;1.000000;0.243137;0.270588;0.25098
445643.84770020;5696555.50189789;470.37444999;40606.000000;1.000000;1.000000;1.000000;1.000000;-0.127549;0.127549;-0.127549;1.000000;0.623529;0.623529;0.603922
445643.81020172;5696555.50070007;470.37514998;28270.000000;1.000000;1.000000;1.000000;1.000000;-0.090401;0.090401;-0.090401;1.000000;0.435294;0.435294;0.423529
445643.75790222;5696555.38209923;470.35504987;6939.000000;1.000000;1.000000;1.000000;1.000000;0.064061;-0.064061;0.064061;1.000000;0.0941176;0.109804;0.129412
445643.86820038;5696555.63049896;470.39555003;15934.000000;1.000000;1.000000;1.000000;1.000000;-0.147573;0.147573;-0.147573;1.000000;0.25098;0.243137;0.254902
445643.71750076;5696555.42779930;470.36074998;34181.000000;1.000000;1.000000;1.000000;1.000000;0.085426;-0.085426;0.085426;1.000000;0.52549;0.52549;0.521569
445643.81540115;5696555.57209976;470.40874984;37522.000000;1.000000;1.000000;1.000000;1.000000;-0.094774;0.094774;-0.094774;1.000000;0.564706;0.584314;0.560784
445643.78470047;5696555.58460052;470.38894989;45746.000000;1.000000;1.000000;1.000000;1.000000;-0.064074;0.064074;-0.064074;1.000000;0.705882;0.701961;0.682353
445643.82330139;5696555.59959991;470.39314987;23387.000000;1.000000;1.000000;1.000000;1.000000;-0.102674;0.102674;-0.102674;1.000000;0.356863;0.360784;0.356863
445643.75140198;5696555.48779877;470.35594990;10537.000000;1.000000;1.000000;1.000000;1.000000;-0.039952;0.039952;-0.039952;1.000000;0.176471;0.156863;0.141176
445643.79409988;5696555.60939987;470.38734986;35980.000000;1.000000;1.000000;1.000000;1.000000;-0.073473;0.073473;-0.073473;1.000000;0.54902;0.556863;0.541176
445643.88599976;5696555.43529900;470.37304999;10023.000000;1.000000;1.000000;1.000000;1.000000;-0.182685;0.182685;-0.182685;1.000000;0.14902;0.160784;0.152941
445643.82040222;5696555.42309959;470.34905006;16448.000000;1.000000;1.000000;1.000000;1.000000;-0.134571;0.134571;-0.134571;1.000000;0.239216;0.262745;0.243137
445643.85550125;5696555.25599869;470.36724998;37779.000000;1.000000;1.000000;1.000000;1.000000;-0.153842;0.153842;-0.153842;1.000000;0.580392;0.580392;0.552941
445643.78199966;5696555.69190033;470.41104986;32896.000000;1.000000;1.000000;1.000000;1.000000;-0.061373;-0.061373;0.061373;1.000000;0.498039;0.505882;0.498039
445643.80109985;5696555.19800003;470.36414983;14906.000000;1.000000;1.000000;1.000000;1.000000;-0.154596;0.154596;-0.154596;1.000000;0.219608;0.235294;0.219608
445643.77840240;5696555.72959908;470.41365005;36237.000000;1.000000;1.000000;1.000000;1.000000;-0.057775;-0.057775;0.057775;1.000000;0.54902;0.556863;0.54902
445643.76130112;5696555.50059898;470.37054994;16191.000000;1.000000;1.000000;1.000000;1.000000;-0.042519;0.042519;-0.042519;1.000000;0.266667;0.243137;0.219608
445643.90990265;5696555.31399925;470.36804988;42148.000000;1.000000;1.000000;1.000000;1.000000;-0.189951;0.189951;-0.189951;1.000000;0.639216;0.65098;0.643137
445643.71430023;5696555.29709824;470.36835005;21331.000000;1.000000;1.000000;1.000000;1.000000;-0.032902;0.032902;-0.032902;1.000000;0.317647;0.333333;0.32549
445643.80030258;5696555.45759781;470.34854986;20817.000000;1.000000;1.000000;1.000000;1.000000;-0.097284;0.097284;-0.097284;1.000000;0.317647;0.317647;0.321569
445643.73740204;5696555.63550003;470.40135004;16705.000000;1.000000;1.000000;1.000000;1.000000;-0.016775;0.016775;-0.016775;1.000000;0.258824;0.258824;0.239216
445643.90470322;5696555.43589981;470.37395002;52171.000000;1.000000;1.000000;1.000000;1.000000;-0.199534;0.199534;-0.199534;1.000000;0.792157;0.8;0.792157
445643.73590286;5696555.64489944;470.40374996;19532.000000;1.000000;1.000000;1.000000;1.000000;-0.015276;0.015276;-0.015276;1.000000;0.294118;0.305882;0.298039
445643.78490265;5696555.19729813;470.35874989;30840.000000;1.000000;1.000000;1.000000;1.000000;-0.147449;0.147449;-0.147449;1.000000;0.466667;0.478431;0.47451
445643.76760300;5696555.38360031;470.35084989;8224.000000;1.000000;1.000000;1.000000;1.000000;0.071272;-0.071272;0.071272;1.000000;0.117647;0.129412;0.14902
445643.70060165;5696555.37100037;470.35924985;23644.000000;1.000000;1.000000;1.000000;1.000000;0.041001;-0.041001;0.041001;1.000000;0.360784;0.364706;0.360784
445643.74450119;5696555.24299820;470.36445000;18504.000000;1.000000;1.000000;1.000000;1.000000;-0.090218;0.090218;-0.090218;1.000000;0.27451;0.290196;0.282353
445643.83279999;5696555.58219917;470.40505006;37779.000000;1.000000;1.000000;1.000000;1.000000;-0.112173;0.112173;-0.112173;1.000000;0.580392;0.580392;0.568627
445643.79070099;5696555.70979889;470.41164996;12336.000000;1.000000;1.000000;1.000000;1.000000;-0.070074;-0.070074;0.070074;1.000000;0.184314;0.192157;0.180392
445643.73820313;5696555.41899879;470.34994986;10023.000000;1.000000;1.000000;1.000000;1.000000;0.090718;-0.090718;0.090718;1.000000;0.156863;0.152941;0.152941
445643.91600235;5696555.54870041;470.41074993;58339.000000;1.000000;1.000000;1.000000;1.000000;-0.195375;0.195375;-0.195375;1.000000;0.886275;0.894118;0.882353
445643.83540161;5696555.71269806;470.41135003;38293.000000;1.000000;1.000000;1.000000;1.000000;-0.114775;-0.114775;0.114775;1.000000;0.572549;0.596078;0.580392
445643.74310120;5696555.28039940;470.36944987;33667.000000;1.000000;1.000000;1.000000;1.000000;-0.054455;0.054455;-0.054455;1.000000;0.509804;0.521569;0.501961
445643.70549973;5696555.27919968;470.37004997;6168.000000;1.000000;1.000000;1.000000;1.000000;-0.050800;0.050800;-0.050800;1.000000;0.0901961;0.101961;0.0980392
445643.87560089;5696555.24709900;470.36804988;22616.000000;1.000000;1.000000;1.000000;1.000000;-0.175754;0.175754;-0.175754;1.000000;0.345098;0.34902;0.32549
445643.88470276;5696555.47270020;470.37584998;32382.000000;1.000000;1.000000;1.000000;1.000000;-0.168923;0.168923;-0.168923;1.000000;0.498039;0.498039;0.482353
445643.77140244;5696555.72799881;470.41094996;30326.000000;1.000000;1.000000;1.000000;1.000000;-0.050776;-0.050776;0.050776;1.000000;0.458824;0.466667;0.462745
445643.81820114;5696555.28279884;470.36824991;50115.000000;1.000000;1.000000;1.000000;1.000000;-0.108391;0.108391;-0.108391;1.000000;0.760784;0.768627;0.760784
445643.78059967;5696555.28159912;470.36885001;44461.000000;1.000000;1.000000;1.000000;1.000000;-0.077067;0.077067;-0.077067;1.000000;0.67451;0.686275;0.670588
445643.76150330;5696555.74759872;470.41074993;43690.000000;1.000000;1.000000;1.000000;1.000000;-0.040876;-0.040876;0.040876;1.000000;0.666667;0.670588;0.654902
445643.90110214;5696555.47349937;470.37654998;52171.000000;1.000000;1.000000;1.000000;1.000000;-0.184718;0.184718;-0.184718;1.000000;0.8;0.8;0.788235
445643.73310287;5696555.50309952;470.37864997;9766.000000;1.000000;1.000000;1.000000;1.000000;-0.015819;0.015819;-0.015819;1.000000;0.172549;0.145098;0.133333
445643.89100082;5696555.28539856;470.36684992;59367.000000;1.000000;1.000000;1.000000;1.000000;-0.176115;0.176115;-0.176115;1.000000;0.901961;0.909804;0.898039
445643.82590302;5696555.71119888;470.41094996;41120.000000;1.000000;1.000000;1.000000;1.000000;-0.105276;-0.105276;0.105276;1.000000;0.619608;0.639216;0.615686
445643.90850266;5696555.56589897;470.40365006;32639.000000;1.000000;1.000000;1.000000;1.000000;-0.187876;0.187876;-0.187876;1.000000;0.498039;0.505882;0.490196
445643.70450027;5696555.31679924;470.36584999;37779.000000;1.000000;1.000000;1.000000;1.000000;-0.013201;0.013201;-0.013201;1.000000;0.568627;0.584314;0.568627
445643.80820282;5696555.50549896;470.37745001;23901.000000;1.000000;1.000000;1.000000;1.000000;-0.087884;0.087884;-0.087884;1.000000;0.372549;0.368627;0.345098
445643.70310028;5696555.35190018;470.36614992;32125.000000;1.000000;1.000000;1.000000;1.000000;0.021900;-0.021900;0.021900;1.000000;0.490196;0.494118;0.482353
445643.78540237;5696555.61719902;470.38934996;25957.000000;1.000000;1.000000;1.000000;1.000000;-0.064775;0.064775;-0.064775;1.000000;0.396078;0.4;0.384314
445643.84560211;5696555.50669868;470.37914993;36494.000000;1.000000;1.000000;1.000000;1.000000;-0.125125;0.125125;-0.125125;1.000000;0.564706;0.560784;0.545098
445643.84330185;5696555.54609879;470.40975000;58853.000000;1.000000;1.000000;1.000000;1.000000;-0.122675;0.122675;-0.122675;1.000000;0.894118;0.905882;0.890196
445643.86370285;5696555.26930054;470.36774995;19018.000000;1.000000;1.000000;1.000000;1.000000;-0.155419;0.155419;-0.155419;1.000000;0.294118;0.294118;0.282353
445643.70620163;5696555.19249924;470.38304998;22359.000000;1.000000;1.000000;1.000000;1.000000;-0.137501;0.137501;-0.137501;1.000000;0.337255;0.345098;0.34902
445643.80980118;5696555.45909889;470.34894993;30840.000000;1.000000;1.000000;1.000000;1.000000;-0.104412;0.104412;-0.104412;1.000000;0.470588;0.47451;0.470588
445643.85780151;5696555.61979874;470.39494993;17990.000000;1.000000;1.000000;1.000000;1.000000;-0.137175;0.137175;-0.137175;1.000000;0.282353;0.270588;0.278431
445643.77410324;5696555.40169914;470.34664990;12079.000000;1.000000;1.000000;1.000000;1.000000;0.089445;-0.089445;0.089445;1.000000;0.176471;0.188235;0.196078
445643.73540314;5696555.43799789;470.34764983;29041.000000;1.000000;1.000000;1.000000;1.000000;-0.076868;0.076868;-0.076868;1.000000;0.447059;0.443137;0.435294
445643.80090149;5696555.69249924;470.40954997;41634.000000;1.000000;1.000000;1.000000;1.000000;-0.080275;-0.080275;0.080275;1.000000;0.627451;0.643137;0.623529
445643.79210098;5696555.22690018;470.36404993;25700.000000;1.000000;1.000000;1.000000;1.000000;-0.125452;0.125452;-0.125452;1.000000;0.376471;0.403922;0.376471
445643.73980148;5696555.36499985;470.35864999;8738.000000;1.000000;1.000000;1.000000;1.000000;0.039908;-0.039908;0.039908;1.000000;0.133333;0.133333;0.14902
445643.81509979;5696555.74939926;470.42024996;20817.000000;1.000000;1.000000;1.000000;1.000000;-0.094473;-0.094473;0.094473;1.000000;0.313725;0.32549;0.313725
445643.72470291;5696555.48309906;470.36634995;16191.000000;1.000000;1.000000;1.000000;1.000000;-0.030244;0.030244;-0.030244;1.000000;0.258824;0.247059;0.239216
445643.83469971;5696555.73139961;470.41384985;57825.000000;1.000000;1.000000;1.000000;1.000000;-0.114073;-0.114073;0.114073;1.000000;0.87451;0.890196;0.878431
445643.75570114;5696555.62689789;470.39275004;17990.000000;1.000000;1.000000;1.000000;1.000000;-0.035074;0.035074;-0.035074;1.000000;0.270588;0.282353;0.262745
445643.76910217;5696555.51599892;470.38504984;26214.000000;1.000000;1.000000;1.000000;1.000000;-0.048475;0.048475;-0.048475;1.000000;0.415686;0.4;0.392157
445643.75290115;5696555.51980026;470.38905003;21588.000000;1.000000;1.000000;1.000000;1.000000;-0.032274;0.032274;-0.032274;1.000000;0.341176;0.333333;0.305882
445643.82930191;5696555.22799881;470.37045004;51143.000000;1.000000;1.000000;1.000000;1.000000;-0.149045;0.149045;-0.149045;1.000000;0.784314;0.788235;0.760784
445643.83040054;5696555.60129936;470.39584996;19275.000000;1.000000;1.000000;1.000000;1.000000;-0.109774;0.109774;-0.109774;1.000000;0.290196;0.298039;0.301961
445643.83550079;5696555.49149902;470.36445000;36494.000000;1.000000;1.000000;1.000000;1.000000;-0.116888;0.116888;-0.116888;1.000000;0.556863;0.560784;0.545098
445643.85200317;5696555.49689873;470.37224986;43690.000000;1.000000;1.000000;1.000000;1.000000;-0.132353;0.132353;-0.132353;1.000000;0.67451;0.670588;0.65098
445643.79320343;5696555.18939789;470.36594989;16448.000000;1.000000;1.000000;1.000000;1.000000;-0.158229;0.158229;-0.158229;1.000000;0.247059;0.258824;0.243137
445643.79640015;5696555.58579834;470.39174988;40606.000000;1.000000;1.000000;1.000000;1.000000;-0.075773;0.075773;-0.075773;1.000000;0.635294;0.619608;0.584314
445643.80560120;5696555.54259880;470.40804984;53713.000000;1.000000;1.000000;1.000000;1.000000;-0.084974;0.084974;-0.084974;1.000000;0.815686;0.827451;0.811765
445643.86610229;5696555.44429977;470.36535003;17219.000000;1.000000;1.000000;1.000000;1.000000;-0.160915;0.160915;-0.160915;1.000000;0.258824;0.266667;0.262745
445643.88070114;5696555.54500015;470.40674998;61166.000000;1.000000;1.000000;1.000000;1.000000;-0.160074;0.160074;-0.160074;1.000000;0.929412;0.941176;0.929412
445643.74250229;5696555.50449951;470.38144996;15420.000000;1.000000;1.000000;1.000000;1.000000;-0.023386;0.023386;-0.023386;1.000000;0.25098;0.231373;0.223529
445643.81570251;5696555.72839935;470.41534998;57825.000000;1.000000;1.000000;1.000000;1.000000;-0.095076;-0.095076;0.095076;1.000000;0.878431;0.890196;0.87451
445643.75170334;5696555.49689873;470.36774995;11822.000000;1.000000;1.000000;1.000000;1.000000;-0.035019;0.035019;-0.035019;1.000000;0.203922;0.176471;0.152941
445643.87380035;5696555.45289810;470.36804988;9509.000000;1.000000;1.000000;1.000000;1.000000;-0.164553;0.164553;-0.164553;1.000000;0.141176;0.14902;0.145098
445643.84210022;5696555.60249908;470.39634993;13107.000000;1.000000;1.000000;1.000000;1.000000;-0.121473;0.121473;-0.121473;1.000000;0.192157;0.207843;0.203922
445643.91600235;5696555.56989868;470.40164997;31097.000000;1.000000;1.000000;1.000000;1.000000;-0.195375;0.195375;-0.195375;1.000000;0.47451;0.478431;0.466667
445643.83070190;5696555.19289978;470.37004997;36237.000000;1.000000;1.000000;1.000000;1.000000;-0.175821;0.175821;-0.175821;1.000000;0.552941;0.560784;0.529412
445643.84399994;5696555.73049934;470.41435005;56026.000000;1.000000;1.000000;1.000000;1.000000;-0.123373;-0.123373;0.123373;1.000000;0.847059;0.862745;0.847059
445643.70280273;5696555.20459946;470.38074996;31611.000000;1.000000;1.000000;1.000000;1.000000;-0.125401;0.125401;-0.125401;1.000000;0.478431;0.486275;0.490196
445643.83740051;5696555.65649994;470.40614988;22873.000000;1.000000;1.000000;1.000000;1.000000;-0.116774;-0.116774;0.116774;1.000000;0.345098;0.356863;0.352941
445643.78890045;5696555.49569901;470.36944987;23901.000000;1.000000;1.000000;1.000000;1.000000;-0.070433;0.070433;-0.070433;1.000000;0.380392;0.364706;0.34902
445643.86550339;5696555.46299942;470.36555006;30326.000000;1.000000;1.000000;1.000000;1.000000;-0.153288;0.153288;-0.153288;1.000000;0.458824;0.466667;0.458824
445643.73480042;5696555.45669945;470.34784986;39321.000000;1.000000;1.000000;1.000000;1.000000;-0.058476;0.058476;-0.058476;1.000000;0.607843;0.603922;0.592157
445643.83220108;5696555.37749870;470.35605003;54227.000000;1.000000;1.000000;1.000000;1.000000;0.121264;-0.121264;0.121264;1.000000;0.811765;0.839216;0.819608
445643.82030304;5696555.67439850;470.40794994;27499.000000;1.000000;1.000000;1.000000;1.000000;-0.099676;-0.099676;0.099676;1.000000;0.411765;0.427451;0.415686
445643.77610214;5696555.37349899;470.34874990;13364.000000;1.000000;1.000000;1.000000;1.000000;0.070496;-0.070496;0.070496;1.000000;0.196078;0.207843;0.227451
445643.75940140;5696555.51000031;470.37994983;19018.000000;1.000000;1.000000;1.000000;1.000000;-0.038875;0.038875;-0.038875;1.000000;0.309804;0.290196;0.266667
445643.74510010;5696555.64409836;470.40415003;18247.000000;1.000000;1.000000;1.000000;1.000000;-0.024473;0.024473;-0.024473;1.000000;0.270588;0.286275;0.27451
445643.74600037;5696555.18449982;470.36375000;9252.000000;1.000000;1.000000;1.000000;1.000000;-0.147696;0.147696;-0.147696;1.000000;0.137255;0.145098;0.14902
445643.76099976;5696555.49379929;470.36115005;13107.000000;1.000000;1.000000;1.000000;1.000000;-0.044781;0.044781;-0.044781;1.000000;0.219608;0.196078;0.176471
445643.79930313;5696555.70199783;470.41194989;21331.000000;1.000000;1.000000;1.000000;1.000000;-0.078676;-0.078676;0.078676;1.000000;0.321569;0.333333;0.317647
445643.73740204;5696555.63319977;470.39664986;17733.000000;1.000000;1.000000;1.000000;1.000000;-0.016775;0.016775;-0.016775;1.000000;0.270588;0.27451;0.25098
445643.76410110;5696555.44019897;470.33734991;16448.000000;1.000000;1.000000;1.000000;1.000000;-0.085343;0.085343;-0.085343;1.000000;0.254902;0.25098;0.247059
445643.80760010;5696555.29319962;470.36555006;35209.000000;1.000000;1.000000;1.000000;1.000000;-0.094438;0.094438;-0.094438;1.000000;0.52549;0.545098;0.541176
445643.87490280;5696555.60179909;470.39325001;14135.000000;1.000000;1.000000;1.000000;1.000000;-0.154276;0.154276;-0.154276;1.000000;0.227451;0.215686;0.215686
445643.72790344;5696555.63169868;470.39855005;17733.000000;1.000000;1.000000;1.000000;1.000000;-0.007277;0.007277;-0.007277;1.000000;0.270588;0.27451;0.254902
445643.85870178;5696555.19259842;470.37134983;57311.000000;1.000000;1.000000;1.000000;1.000000;-0.194792;0.194792;-0.194792;1.000000;0.878431;0.878431;0.85098
445643.73810013;5696555.17809875;470.37034990;18761.000000;1.000000;1.000000;1.000000;1.000000;-0.152903;0.152903;-0.152903;1.000000;0.286275;0.286275;0.294118
445643.89910324;5696555.32429894;470.37004997;40863.000000;1.000000;1.000000;1.000000;1.000000;-0.178567;0.178567;-0.178567;1.000000;0.615686;0.631373;0.619608
445643.72070129;5696555.38999947;470.36745002;23387.000000;1.000000;1.000000;1.000000;1.000000;0.060000;-0.060000;0.060000;1.000000;0.360784;0.356863;0.360784
445643.77900131;5696555.52210052;470.38555004;27499.000000;1.000000;1.000000;1.000000;1.000000;-0.058374;0.058374;-0.058374;1.000000;0.431373;0.423529;0.396078
445643.78250320;5696555.64299973;470.40345003;38293.000000;1.000000;1.000000;1.000000;1.000000;-0.061876;0.061876;-0.061876;1.000000;0.576471;0.592157;0.580392
445643.90979965;5696555.28599937;470.36544992;57054.000000;1.000000;1.000000;1.000000;1.000000;-0.194223;0.194223;-0.194223;1.000000;0.870588;0.87451;0.866667
445643.71470078;5696555.27829941;470.37284996;5140.000000;1.000000;1.000000;1.000000;1.000000;-0.051701;0.051701;-0.051701;1.000000;0.0705882;0.0862745;0.0823529
445643.75830276;5696555.31639870;470.36594989;5911.000000;1.000000;1.000000;1.000000;1.000000;-0.040056;0.040056;-0.040056;1.000000;0.0901961;0.0941176;0.101961
445643.74400146;5696555.68149956;470.40454986;21074.000000;1.000000;1.000000;1.000000;1.000000;-0.023375;-0.023375;0.023375;1.000000;0.313725;0.32549;0.32549
445643.84920319;5696555.19109924;470.37084987;58082.000000;1.000000;1.000000;1.000000;1.000000;-0.189276;0.189276;-0.189276;1.000000;0.890196;0.894118;0.862745
445643.71520050;5696555.25959976;470.37494995;18761.000000;1.000000;1.000000;1.000000;1.000000;-0.070400;0.070400;-0.070400;1.000000;0.27451;0.298039;0.290196
445643.69569977;5696555.29659851;470.36514999;6682.000000;1.000000;1.000000;1.000000;1.000000;-0.033792;0.033792;-0.033792;1.000000;0.0941176;0.105882;0.109804
445643.80600174;5696555.30039795;470.36325004;19275.000000;1.000000;1.000000;1.000000;1.000000;-0.090361;0.090361;-0.090361;1.000000;0.282353;0.301961;0.305882
445643.74160202;5696555.48399933;470.35784986;8995.000000;1.000000;1.000000;1.000000;1.000000;-0.035983;0.035983;-0.035983;1.000000;0.152941;0.137255;0.121569
445643.77110107;5696555.69999893;470.41065003;8738.000000;1.000000;1.000000;1.000000;1.000000;-0.050474;-0.050474;0.050474;1.000000;0.133333;0.137255;0.133333
445643.79990204;5696555.48549850;470.36284997;17219.000000;1.000000;1.000000;1.000000;1.000000;-0.083955;0.083955;-0.083955;1.000000;0.262745;0.262745;0.262745
445643.79210098;5696555.67239960;470.40664985;30069.000000;1.000000;1.000000;1.000000;1.000000;-0.071474;-0.071474;0.071474;1.000000;0.454902;0.462745;0.45098
445643.75460251;5696555.67119797;470.40724995;32125.000000;1.000000;1.000000;1.000000;1.000000;-0.033976;-0.033976;0.033976;1.000000;0.486275;0.494118;0.486275
445643.77930267;5696555.29109772;470.36654999;30069.000000;1.000000;1.000000;1.000000;1.000000;-0.070401;0.070401;-0.070401;1.000000;0.45098;0.466667;0.454902
445643.83390244;5696555.57259949;470.41435005;39064.000000;1.000000;1.000000;1.000000;1.000000;-0.113276;0.113276;-0.113276;1.000000;0.596078;0.6;0.580392
445643.75730331;5696555.17879875;470.36194994;7196.000000;1.000000;1.000000;1.000000;1.000000;-0.155586;0.155586;-0.155586;1.000000;0.105882;0.113725;0.117647
445643.75410278;5696555.21660049;470.35524990;22873.000000;1.000000;1.000000;1.000000;1.000000;-0.118237;0.118237;-0.118237;1.000000;0.341176;0.356863;0.356863
445643.90270050;5696555.46409805;470.37415006;52685.000000;1.000000;1.000000;1.000000;1.000000;-0.188502;0.188502;-0.188502;1.000000;0.807843;0.807843;0.796078
445643.76980026;5696555.73739822;470.41334989;38550.000000;1.000000;1.000000;1.000000;1.000000;-0.049173;-0.049173;0.049173;1.000000;0.588235;0.592157;0.580392
445643.84470184;5696555.73969849;470.41674997;43176.000000;1.000000;1.000000;1.000000;1.000000;-0.124075;-0.124075;0.124075;1.000000;0.647059;0.666667;0.65098
445643.89230164;5696555.50919922;470.38594987;24415.000000;1.000000;1.000000;1.000000;1.000000;-0.171710;0.171710;-0.171710;1.000000;0.372549;0.376471;0.356863
445643.89960297;5696555.54789932;470.40995004;60138.000000;1.000000;1.000000;1.000000;1.000000;-0.178976;0.178976;-0.178976;1.000000;0.909804;0.92549;0.913725
445643.86170013;5696555.50509842;470.38214995;35466.000000;1.000000;1.000000;1.000000;1.000000;-0.141281;0.141281;-0.141281;1.000000;0.54902;0.541176;0.52549
445643.70200165;5696555.36149796;470.35924985;21588.000000;1.000000;1.000000;1.000000;1.000000;0.031498;-0.031498;0.031498;1.000000;0.329412;0.333333;0.32549
445643.84840210;5696555.18189819;470.37074997;47288.000000;1.000000;1.000000;1.000000;1.000000;-0.195603;0.195603;-0.195603;1.000000;0.72549;0.72549;0.701961
445643.75470169;5696555.46669968;470.34194996;33153.000000;1.000000;1.000000;1.000000;1.000000;-0.057933;0.057933;-0.057933;1.000000;0.517647;0.505882;0.501961
445643.75600250;5696555.42919930;470.33924987;16962.000000;1.000000;1.000000;1.000000;1.000000;-0.091513;0.091513;-0.091513;1.000000;0.262745;0.258824;0.254902
445643.77720078;5696555.56389816;470.40934994;46260.000000;1.000000;1.000000;1.000000;1.000000;-0.056574;0.056574;-0.056574;1.000000;0.686275;0.721569;0.705882
445643.81630142;5696555.52549942;470.39434983;36237.000000;1.000000;1.000000;1.000000;1.000000;-0.095675;0.095675;-0.095675;1.000000;0.552941;0.556863;0.541176
445643.77900131;5696555.52659805;470.39494993;37008.000000;1.000000;1.000000;1.000000;1.000000;-0.058374;0.058374;-0.058374;1.000000;0.572549;0.568627;0.556863
445643.85360153;5696555.52439888;470.39594986;37008.000000;1.000000;1.000000;1.000000;1.000000;-0.132975;0.132975;-0.132975;1.000000;0.568627;0.568627;0.54902
445643.70880325;5696555.46349915;470.36774995;20817.000000;1.000000;1.000000;1.000000;1.000000;0.050927;-0.050927;0.050927;1.000000;0.32549;0.321569;0.301961
445643.72739990;5696555.62489899;470.39384987;13621.000000;1.000000;1.000000;1.000000;1.000000;-0.006773;0.006773;-0.006773;1.000000;0.215686;0.211765;0.188235
445643.75230225;5696555.27960022;470.36984994;52171.000000;1.000000;1.000000;1.000000;1.000000;-0.059527;0.059527;-0.059527;1.000000;0.792157;0.803922;0.788235
445643.85510071;5696555.51039894;470.38424994;36237.000000;1.000000;1.000000;1.000000;1.000000;-0.134494;0.134494;-0.134494;1.000000;0.560784;0.552941;0.541176
445643.69640167;5696555.21209915;470.38284995;33667.000000;1.000000;1.000000;1.000000;1.000000;-0.117983;0.117983;-0.117983;1.000000;0.509804;0.517647;0.52549
445643.80340012;5696555.36619957;470.34994986;6682.000000;1.000000;1.000000;1.000000;1.000000;0.090343;-0.090343;0.090343;1.000000;0.0784314;0.113725;0.117647
445643.76060303;5696555.48689850;470.35634996;13621.000000;1.000000;1.000000;1.000000;1.000000;-0.047890;0.047890;-0.047890;1.000000;0.223529;0.203922;0.188235
445643.76710327;5696555.40229996;470.34865000;11565.000000;1.000000;1.000000;1.000000;1.000000;0.085950;-0.085950;0.085950;1.000000;0.172549;0.176471;0.188235
445643.77430161;5696555.62749870;470.39594986;25186.000000;1.000000;1.000000;1.000000;1.000000;-0.053675;0.053675;-0.053675;1.000000;0.380392;0.388235;0.384314
445643.72400101;5696555.51079948;470.38995006;16448.000000;1.000000;1.000000;1.000000;1.000000;-0.003825;0.003825;-0.003825;1.000000;0.270588;0.25098;0.231373
445643.79710205;5696555.51569946;470.38634994;25700.000000;1.000000;1.000000;1.000000;1.000000;-0.076475;0.076475;-0.076475;1.000000;0.4;0.396078;0.376471
445643.83460052;5696555.51689919;470.38574984;35723.000000;1.000000;1.000000;1.000000;1.000000;-0.113974;0.113974;-0.113974;1.000000;0.54902;0.54902;0.533333
445643.71940048;5696555.58600052;470.38835003;32896.000000;1.000000;1.000000;1.000000;1.000000;0.001226;-0.001226;0.001226;1.000000;0.501961;0.509804;0.486275
445643.75700195;5696555.58719833;470.38535001;35466.000000;1.000000;1.000000;1.000000;1.000000;-0.036375;0.036375;-0.036375;1.000000;0.552941;0.541176;0.52549
445643.75660141;5696555.39159973;470.35045006;8995.000000;1.000000;1.000000;1.000000;1.000000;0.071335;-0.071335;0.071335;1.000000;0.133333;0.137255;0.14902
445643.89130219;5696555.52789886;470.39544990;45489.000000;1.000000;1.000000;1.000000;1.000000;-0.170675;0.170675;-0.170675;1.000000;0.694118;0.701961;0.678431
445643.72850235;5696555.17659958;470.37454988;17733.000000;1.000000;1.000000;1.000000;1.000000;-0.153602;0.153602;-0.153602;1.000000;0.266667;0.270588;0.282353
445643.80560120;5696555.31919868;470.35874989;12593.000000;1.000000;1.000000;1.000000;1.000000;-0.085658;0.085658;-0.085658;1.000000;0.180392;0.2;0.207843
445643.68920334;5696555.21269806;470.38714983;32125.000000;1.000000;1.000000;1.000000;1.000000;-0.117302;0.117302;-0.117302;1.000000;0.486275;0.494118;0.501961
445643.78910263;5696555.71929939;470.41404988;25186.000000;1.000000;1.000000;1.000000;1.000000;-0.068476;-0.068476;0.068476;1.000000;0.380392;0.388235;0.376471
445643.80720337;5696555.73849876;470.41734983;42662.000000;1.000000;1.000000;1.000000;1.000000;-0.086576;-0.086576;0.086576;1.000000;0.647059;0.658824;0.643137
445643.76799973;5696555.31789978;470.36174991;2570.000000;1.000000;1.000000;1.000000;1.000000;-0.048894;0.048894;-0.048894;1.000000;0.0431373;0.0392157;0.0509804
445643.80330093;5696555.60859879;470.38774993;25443.000000;1.000000;1.000000;1.000000;1.000000;-0.082674;0.082674;-0.082674;1.000000;0.384314;0.396078;0.384314
445643.79150208;5696555.66539963;470.40654995;22616.000000;1.000000;1.000000;1.000000;1.000000;-0.070875;-0.070875;0.070875;1.000000;0.341176;0.352941;0.341176
445643.81570251;5696555.55329903;470.41324999;63222.000000;1.000000;1.000000;1.000000;1.000000;-0.095076;0.095076;-0.095076;1.000000;0.960784;0.972549;0.956863
445643.79650314;5696555.36689957;470.34964993;4626.000000;1.000000;1.000000;1.000000;1.000000;0.084373;-0.084373;0.084373;1.000000;0.0509804;0.0784314;0.0862745
445643.69720276;5696555.24249847;470.37625005;16705.000000;1.000000;1.000000;1.000000;1.000000;-0.087576;0.087576;-0.087576;1.000000;0.247059;0.262745;0.262745
445643.90300186;5696555.62269791;470.38544991;4112.000000;1.000000;1.000000;1.000000;1.000000;-0.182375;0.182375;-0.182375;1.000000;0.0745098;0.0588235;0.0666667
445643.81929977;5696555.24529846;470.37014987;35980.000000;1.000000;1.000000;1.000000;1.000000;-0.130041;0.130041;-0.130041;1.000000;0.552941;0.556863;0.529412
445643.75770004;5696555.40320023;470.35064985;6939.000000;1.000000;1.000000;1.000000;1.000000;0.082053;-0.082053;0.082053;1.000000;0.101961;0.105882;0.117647
445643.82900055;5696555.44089897;470.35194995;29812.000000;1.000000;1.000000;1.000000;1.000000;-0.130359;0.130359;-0.130359;1.000000;0.447059;0.462745;0.45098
445643.81520279;5696555.54640015;470.41084983;58596.000000;1.000000;1.000000;1.000000;1.000000;-0.094576;0.094576;-0.094576;1.000000;0.890196;0.901961;0.886275
445643.72110184;5696555.34329803;470.36454989;20046.000000;1.000000;1.000000;1.000000;1.000000;0.013307;-0.013307;0.013307;1.000000;0.313725;0.305882;0.309804
445643.79010208;5696555.51639946;470.38605000;28013.000000;1.000000;1.000000;1.000000;1.000000;-0.069475;0.069475;-0.069475;1.000000;0.435294;0.427451;0.415686
445643.82510193;5696555.51549919;470.38524987;32896.000000;1.000000;1.000000;1.000000;1.000000;-0.104475;0.104475;-0.104475;1.000000;0.501961;0.505882;0.486275
445643.81240280;5696555.63559921;470.39774992;13364.000000;1.000000;1.000000;1.000000;1.000000;-0.091776;0.091776;-0.091776;1.000000;0.203922;0.207843;0.2
445643.82830246;5696555.62949951;470.39605000;12593.000000;1.000000;1.000000;1.000000;1.000000;-0.107676;0.107676;-0.107676;1.000000;0.192157;0.192157;0.192157
445643.87360199;5696555.27529915;470.36835005;25700.000000;1.000000;1.000000;1.000000;1.000000;-0.162461;0.162461;-0.162461;1.000000;0.392157;0.4;0.384314
445643.80210312;5696555.23530014;470.36695005;54227.000000;1.000000;1.000000;1.000000;1.000000;-0.124926;0.124926;-0.124926;1.000000;0.815686;0.839216;0.807843
445643.83720215;5696555.23670013;470.36854984;30069.000000;1.000000;1.000000;1.000000;1.000000;-0.149314;0.149314;-0.149314;1.000000;0.462745;0.462745;0.435294
445643.74780090;5696555.58809860;470.38494994;32125.000000;1.000000;1.000000;1.000000;1.000000;-0.027174;0.027174;-0.027174;1.000000;0.498039;0.494118;0.47451
445643.72810181;5696555.19539841;470.37004997;21331.000000;1.000000;1.000000;1.000000;1.000000;-0.134809;0.134809;-0.134809;1.000000;0.321569;0.329412;0.329412
445643.83860214;5696555.20149811;470.36815001;58853.000000;1.000000;1.000000;1.000000;1.000000;-0.174445;0.174445;-0.174445;1.000000;0.901961;0.901961;0.878431
445643.75250061;5696555.69940002;470.40744998;14649.000000;1.000000;1.000000;1.000000;1.000000;-0.031874;-0.031874;0.031874;1.000000;0.219608;0.227451;0.223529
445643.71990021;5696555.35280045;470.35994985;15420.000000;1.000000;1.000000;1.000000;1.000000;0.022800;-0.022800;0.022800;1.000000;0.243137;0.235294;0.239216
445643.70480164;5696555.29569824;470.36794998;8481.000000;1.000000;1.000000;1.000000;1.000000;-0.034302;0.034302;-0.034302;1.000000;0.117647;0.137255;0.133333
445643.84330185;5696555.32269867;470.36054995;22359.000000;1.000000;1.000000;1.000000;1.000000;-0.122892;0.122892;-0.122892;1.000000;0.333333;0.34902;0.352941
445643.76460083;5696555.65389832;470.40744998;24672.000000;1.000000;1.000000;1.000000;1.000000;-0.043974;-0.043974;0.043974;1.000000;0.372549;0.384314;0.376471
445643.76340302;5696555.69139870;470.40785005;17733.000000;1.000000;1.000000;1.000000;1.000000;-0.042776;-0.042776;0.042776;1.000000;0.266667;0.278431;0.27451
445643.73150070;5696555.35179909;470.35815002;11822.000000;1.000000;1.000000;1.000000;1.000000;0.024361;-0.024361;0.024361;1.000000;0.196078;0.176471;0.192157
445643.84200104;5696555.35789879;470.35854985;54484.000000;1.000000;1.000000;1.000000;1.000000;0.124539;-0.124539;0.124539;1.000000;0.811765;0.843137;0.835294
445643.79710205;5696555.32699783;470.35614993;3598.000000;1.000000;1.000000;1.000000;1.000000;-0.076534;0.076534;-0.076534;1.000000;0.0470588;0.0588235;0.0784314
445643.85160263;5696555.56389816;470.41734983;43690.000000;1.000000;1.000000;1.000000;1.000000;-0.130976;0.130976;-0.130976;1.000000;0.658824;0.678431;0.654902
445643.71759995;5696555.48369797;470.37074997;18247.000000;1.000000;1.000000;1.000000;1.000000;0.029437;-0.029437;0.029437;1.000000;0.286275;0.278431;0.270588
445643.78840073;5696555.48879822;470.36695005;16705.000000;1.000000;1.000000;1.000000;1.000000;-0.071984;0.071984;-0.071984;1.000000;0.262745;0.254902;0.262745
445643.83250244;5696555.33069809;470.35774996;39578.000000;1.000000;1.000000;1.000000;1.000000;0.111878;-0.111878;0.111878;1.000000;0.584314;0.611765;0.619608
445643.75610168;5696555.36349876;470.35704996;5140.000000;1.000000;1.000000;1.000000;1.000000;0.048792;-0.048792;0.048792;1.000000;0.0705882;0.0784314;0.105882
445643.86290176;5696555.28569992;470.36794998;26471.000000;1.000000;1.000000;1.000000;1.000000;-0.149012;0.149012;-0.149012;1.000000;0.392157;0.411765;0.403922
445643.71100052;5696555.21329887;470.37185003;27499.000000;1.000000;1.000000;1.000000;1.000000;-0.116701;0.116701;-0.116701;1.000000;0.415686;0.423529;0.427451
445643.73980148;5696555.57939919;470.38914992;24415.000000;1.000000;1.000000;1.000000;1.000000;-0.019175;0.019175;-0.019175;1.000000;0.372549;0.380392;0.352941
445643.74290283;5696555.25239952;470.36675002;13364.000000;1.000000;1.000000;1.000000;1.000000;-0.080734;0.080734;-0.080734;1.000000;0.196078;0.211765;0.2
445643.78050049;5696555.25359924;470.36614992;55769.000000;1.000000;1.000000;1.000000;1.000000;-0.097067;0.097067;-0.097067;1.000000;0.843137;0.858824;0.835294
445643.83370026;5696555.36799820;470.35594990;55769.000000;1.000000;1.000000;1.000000;1.000000;0.119287;-0.119287;0.119287;1.000000;0.831373;0.862745;0.85098
445643.89299973;5696555.25720032;470.36664989;48573.000000;1.000000;1.000000;1.000000;1.000000;-0.187115;0.187115;-0.187115;1.000000;0.741176;0.745098;0.733333
445643.74160202;5696555.28989990;470.36955001;51400.000000;1.000000;1.000000;1.000000;1.000000;-0.045255;0.045255;-0.045255;1.000000;0.780392;0.792157;0.772549
445643.81780060;5696555.30159958;470.36375000;18761.000000;1.000000;1.000000;1.000000;1.000000;-0.101239;0.101239;-0.101239;1.000000;0.270588;0.294118;0.294118
445643.72300156;5696555.31499870;470.36894991;58596.000000;1.000000;1.000000;1.000000;1.000000;-0.015188;0.015188;-0.015188;1.000000;0.894118;0.901961;0.886275
445643.90960129;5696555.52159889;470.39144995;39835.000000;1.000000;1.000000;1.000000;1.000000;-0.188974;0.188974;-0.188974;1.000000;0.607843;0.615686;0.6
445643.74270065;5696555.74469955;470.40754988;32382.000000;1.000000;1.000000;1.000000;1.000000;-0.022074;0.022074;-0.022074;1.000000;0.494118;0.501961;0.486275
445643.72050293;5696555.57639893;470.39524986;24158.000000;1.000000;1.000000;1.000000;1.000000;0.000124;-0.000124;0.000124;1.000000;0.356863;0.380392;0.368627
445643.87190063;5696555.52029999;470.39444997;28527.000000;1.000000;1.000000;1.000000;1.000000;-0.151274;0.151274;-0.151274;1.000000;0.443137;0.439216;0.423529
445643.75370224;5696555.66189774;470.40704991;25443.000000;1.000000;1.000000;1.000000;1.000000;-0.033075;-0.033075;0.033075;1.000000;0.384314;0.396078;0.388235
445643.86300095;5696555.52579887;470.39645006;34952.000000;1.000000;1.000000;1.000000;1.000000;-0.142374;0.142374;-0.142374;1.000000;0.537255;0.537255;0.517647
445643.75700195;5696555.37279900;470.35484983;5911.000000;1.000000;1.000000;1.000000;1.000000;0.056168;-0.056168;0.056168;1.000000;0.0823529;0.0901961;0.117647
445643.82750137;5696555.42469986;470.35165002;32382.000000;1.000000;1.000000;1.000000;1.000000;-0.138856;0.138856;-0.138856;1.000000;0.482353;0.505882;0.490196
445643.83310135;5696555.33769806;470.35794999;47031.000000;1.000000;1.000000;1.000000;1.000000;0.112738;-0.112738;0.112738;1.000000;0.698039;0.729412;0.729412
445643.89540298;5696555.43669899;470.37354996;31097.000000;1.000000;1.000000;1.000000;1.000000;-0.190671;0.190671;-0.190671;1.000000;0.470588;0.482353;0.47451
445643.80630310;5696555.51259811;470.38205006;24672.000000;1.000000;1.000000;1.000000;1.000000;-0.085676;0.085676;-0.085676;1.000000;0.384314;0.380392;0.352941
445643.86430176;5696555.27619942;470.36784985;23130.000000;1.000000;1.000000;1.000000;1.000000;-0.153418;0.153418;-0.153418;1.000000;0.352941;0.360784;0.345098
445643.84140213;5696555.55319794;470.41444995;62708.000000;1.000000;1.000000;1.000000;1.000000;-0.120775;0.120775;-0.120775;1.000000;0.952941;0.964706;0.94902
445643.76570328;5696555.41179855;470.34644987;14392.000000;1.000000;1.000000;1.000000;1.000000;0.093396;-0.093396;0.093396;1.000000;0.219608;0.223529;0.223529
445643.88310059;5696555.48219879;470.37815001;35723.000000;1.000000;1.000000;1.000000;1.000000;-0.165336;0.165336;-0.165336;1.000000;0.552941;0.54902;0.537255
445643.79140289;5696555.24559982;470.36654999;53970.000000;1.000000;1.000000;1.000000;1.000000;-0.110148;0.110148;-0.110148;1.000000;0.815686;0.831373;0.803922
445643.82230194;5696555.57369812;470.41374995;42148.000000;1.000000;1.000000;1.000000;1.000000;-0.101675;0.101675;-0.101675;1.000000;0.643137;0.65098;0.635294
445643.70150192;5696555.38019951;470.35714986;29041.000000;1.000000;1.000000;1.000000;1.000000;0.050200;-0.050200;0.050200;1.000000;0.447059;0.447059;0.439216
445643.82590302;5696555.48999985;470.36634995;30583.000000;1.000000;1.000000;1.000000;1.000000;-0.107774;0.107774;-0.107774;1.000000;0.470588;0.470588;0.458824
445643.81680115;5696555.29229935;470.36594989;35209.000000;1.000000;1.000000;1.000000;1.000000;-0.103300;0.103300;-0.103300;1.000000;0.533333;0.545098;0.541176
445643.72179993;5696555.51330002;470.39224984;20560.000000;1.000000;1.000000;1.000000;1.000000;-0.001173;0.001173;-0.001173;1.000000;0.329412;0.313725;0.301961
445643.89380081;5696555.44389923;470.37354996;30840.000000;1.000000;1.000000;1.000000;1.000000;-0.186420;0.186420;-0.186420;1.000000;0.466667;0.47451;0.466667
445643.69770248;5696555.20260056;470.38514997;28013.000000;1.000000;1.000000;1.000000;1.000000;-0.127437;0.127437;-0.127437;1.000000;0.423529;0.431373;0.439216
445643.89389999;5696555.47189911;470.37625005;47031.000000;1.000000;1.000000;1.000000;1.000000;-0.178050;0.178050;-0.178050;1.000000;0.72549;0.721569;0.705882
445643.77779968;5696555.54519852;470.40914990;57054.000000;1.000000;1.000000;1.000000;1.000000;-0.057173;0.057173;-0.057173;1.000000;0.858824;0.882353;0.866667
445643.80470093;5696555.35669907;470.35214998;10023.000000;1.000000;1.000000;1.000000;1.000000;0.088212;-0.088212;0.088212;1.000000;0.133333;0.164706;0.168627
445643.76720245;5696555.35549934;470.35284998;8224.000000;1.000000;1.000000;1.000000;1.000000;0.053099;-0.053099;0.053099;1.000000;0.121569;0.129412;0.145098
445643.72879990;5696555.40089996;470.36555006;30840.000000;1.000000;1.000000;1.000000;1.000000;0.071369;-0.071369;0.071369;1.000000;0.470588;0.470588;0.482353
445643.79050262;5696555.23639877;470.36644985;41634.000000;1.000000;1.000000;1.000000;1.000000;-0.116807;0.116807;-0.116807;1.000000;0.623529;0.647059;0.615686
445643.72350128;5696555.50389870;470.38524987;16448.000000;1.000000;1.000000;1.000000;1.000000;-0.009252;0.009252;-0.009252;1.000000;0.262745;0.247059;0.243137
445643.91100128;5696555.50979813;470.38675000;29812.000000;1.000000;1.000000;1.000000;1.000000;-0.190396;0.190396;-0.190396;1.000000;0.454902;0.458824;0.435294
445643.72110184;5696555.58109863;470.39065005;23644.000000;1.000000;1.000000;1.000000;1.000000;-0.000475;0.000475;-0.000475;1.000000;0.34902;0.368627;0.356863
445643.75860031;5696555.58000000;470.38765003;26471.000000;1.000000;1.000000;1.000000;1.000000;-0.037973;0.037973;-0.037973;1.000000;0.403922;0.411765;0.396078
445643.72010239;5696555.59300049;470.38614990;35980.000000;1.000000;1.000000;1.000000;1.000000;0.000525;-0.000525;0.000525;1.000000;0.552941;0.552941;0.529412
445643.82790192;5696555.23749931;470.37045004;36751.000000;1.000000;1.000000;1.000000;1.000000;-0.141649;0.141649;-0.141649;1.000000;0.564706;0.568627;0.541176
445643.82909973;5696555.19999893;470.37004997;49087.000000;1.000000;1.000000;1.000000;1.000000;-0.169312;0.169312;-0.169312;1.000000;0.752941;0.756863;0.729412
445643.69780167;5696555.24949844;470.37634995;15934.000000;1.000000;1.000000;1.000000;1.000000;-0.080558;0.080558;-0.080558;1.000000;0.239216;0.247059;0.25098
445643.68810089;5696555.20339783;470.39164998;31868.000000;1.000000;1.000000;1.000000;1.000000;-0.126602;0.126602;-0.126602;1.000000;0.482353;0.490196;0.494118
445643.71290024;5696555.18729980;470.37864997;14906.000000;1.000000;1.000000;1.000000;1.000000;-0.142700;0.142700;-0.142700;1.000000;0.227451;0.231373;0.239216
445643.82870300;5696555.24679955;470.37054994;29041.000000;1.000000;1.000000;1.000000;1.000000;-0.136392;0.136392;-0.136392;1.000000;0.443137;0.447059;0.423529
445643.83370026;5696555.58919914;470.40054991;34181.000000;1.000000;1.000000;1.000000;1.000000;-0.113073;0.113073;-0.113073;1.000000;0.52549;0.52549;0.513725
445643.89470108;5696555.63970001;470.39684989;8481.000000;1.000000;1.000000;1.000000;1.000000;-0.174074;0.174074;-0.174074;1.000000;0.141176;0.12549;0.137255
445643.85700043;5696555.63839920;470.39984991;22359.000000;1.000000;1.000000;1.000000;1.000000;-0.136374;0.136374;-0.136374;1.000000;0.34902;0.341176;0.345098
445643.78470047;5696555.41250046;470.34264996;23901.000000;1.000000;1.000000;1.000000;1.000000;0.104459;-0.104459;0.104459;1.000000;0.356863;0.368627;0.368627
445643.89240082;5696555.48129852;470.37854983;48830.000000;1.000000;1.000000;1.000000;1.000000;-0.174643;0.174643;-0.174643;1.000000;0.752941;0.74902;0.733333
445643.72610291;5696555.22360046;470.36804988;4626.000000;1.000000;1.000000;1.000000;1.000000;-0.106540;0.106540;-0.106540;1.000000;0.0627451;0.0745098;0.0784314
445643.82840164;5696555.45969971;470.35214998;29812.000000;1.000000;1.000000;1.000000;1.000000;-0.120388;0.120388;-0.120388;1.000000;0.447059;0.462745;0.443137
445643.87530334;5696555.44339951;470.36804988;8481.000000;1.000000;1.000000;1.000000;1.000000;-0.169625;0.169625;-0.169625;1.000000;0.12549;0.133333;0.12549
445643.78009995;5696555.50350006;470.37374999;22873.000000;1.000000;1.000000;1.000000;1.000000;-0.060215;0.060215;-0.060215;1.000000;0.356863;0.34902;0.333333
445643.78930099;5696555.74949844;470.42135002;23644.000000;1.000000;1.000000;1.000000;1.000000;-0.068674;-0.068674;0.068674;1.000000;0.360784;0.364706;0.352941
445643.73430069;5696555.23459824;470.36614992;10794.000000;1.000000;1.000000;1.000000;1.000000;-0.096377;0.096377;-0.096377;1.000000;0.156863;0.172549;0.172549
445643.88420303;5696555.23929794;470.36835005;24929.000000;1.000000;1.000000;1.000000;1.000000;-0.187040;0.187040;-0.187040;1.000000;0.384314;0.384314;0.360784
